x	y	z
4.578965478	-2.87243513	-0.845005423
6.063864055	-3.82501926	-0.852749473
5.670469989	-3.294369896	-0.843470577
5.377948196	-2.867852558	-0.844100718
4.758024297	-3.253897878	-0.845949185
4.566789894	-2.884359411	-0.84438762
6.048747617	-3.841475497	-0.852277047
5.670608808	-3.317761648	-0.845001402
5.365633931	-2.882463165	-0.843551939
4.746389102	-3.267357868	-0.84565879
4.552083477	-2.894645318	-0.843306452
6.036097134	-3.859479821	-0.852158911
5.688603046	-3.351758496	-0.8492111
5.388998332	-2.916354627	-0.84862781
4.73634245	-3.281904168	-0.84565879
4.561487131	-2.920317114	-0.846704394
5.68255827	-3.371725832	-0.84984893
5.393940883	-2.94045991	-0.850822751
4.745728058	-3.310003932	-0.849143636
4.547523596	-2.931086125	-0.845777719
5.671335769	-3.388634976	-0.849721375
5.377080328	-2.952703585	-0.849588101
4.747697134	-3.333075293	-0.851321708
4.550112732	-2.95255325	-0.847939997
5.621819202	-3.382496911	-0.843853298
5.357594581	-2.96343302	-0.84794188
4.758457846	-3.362470794	-0.855096948
4.546823156	-2.970281307	-0.849021166
5.650436464	-3.423369753	-0.849721374
5.336363402	-2.973106464	-0.846021299
4.73441297	-3.367304981	-0.852628482
4.539340013	-2.985302641	-0.849330096
5.639060683	-3.44017258	-0.849593763
5.325489394	-2.988494766	-0.845746939
4.70957864	-3.371447606	-0.850014876
4.533454963	-3.001396672	-0.849947898
5.628479557	-3.457456785	-0.849593762
5.318882867	-3.00628129	-0.846158451
4.696805128	-3.384145273	-0.849579228
4.526692261	-3.016934772	-0.850411265
5.616158688	-3.473664793	-0.849338653
5.318242792	-3.027485516	-0.84753031
4.688002424	-3.399700719	-0.84986968
4.516594297	-3.030257774	-0.85025677
5.600423904	-3.487732775	-0.84857327
5.301195488	-3.039353247	-0.846295658
4.683144293	-3.418150434	-0.850886059
4.514645206	-3.049077104	-0.851646869
5.587176537	-3.5033176	-0.84819055
5.283268201	-3.05064971	-0.844923799
4.67741992	-3.436016376	-0.851757299
4.489745663	-3.052359245	-0.848712294
5.575563525	-3.519912871	-0.848062995
5.266177545	-3.062362673	-0.843689149
4.674811855	-3.456232275	-0.853209327
4.473837088	-3.061655318	-0.847476689
5.578968252	-3.546046587	-0.85023165
5.261885932	-3.081508082	-0.844512229
4.670536457	-3.475283142	-0.854370903
4.461982304	-3.073685172	-0.847013324
5.565556591	-3.561542102	-0.849848929
5.262645708	-3.103675198	-0.84615845
4.676483662	-3.502050306	-0.857420159
4.451719396	-3.086796809	-0.846858829
5.550434743	-3.575914464	-0.8492111
5.256505898	-3.121829256	-0.846707229
4.660976696	-3.512808024	-0.856548976
4.45357073	-3.108356409	-0.849021166
5.543598637	-3.59562459	-0.849848929
5.250303874	-3.139974962	-0.84725595
4.650177705	-3.527091125	-0.856548976
4.41895184	-3.104398867	-0.844233184
5.540845911	-3.618037949	-0.851124588
5.244040107	-3.158112087	-0.847804729
4.646413177	-3.546744254	-0.857855809
4.419893747	-3.125356868	-0.846241027
5.534692601	-3.638288902	-0.851889972
5.241949384	-3.17880817	-0.84903938
4.637863744	-3.562790719	-0.858291399
4.425578461	-3.149787288	-0.84917566
5.547490923	-3.671125311	-0.855589394
5.23132686	-3.194359184	-0.848902171
4.639435808	-3.586684872	-0.86061461
4.427138715	-3.17140494	-0.851337939
5.539503652	-3.690327094	-0.856099669
5.22740843	-3.214025315	-0.849862461
4.592488418	-3.572954796	-0.853935313
4.430210727	-3.19421764	-0.853809206
5.542983095	-3.717248218	-0.858395877
5.231841084	-3.238911404	-0.852194612
4.60565508	-3.60593536	-0.858436595
4.408395825	-3.199089927	-0.851492433
5.550459598	-3.747000149	-0.861329916
5.187414377	-3.233463995	-0.846570019
4.599233893	-3.623722371	-0.859307837
4.402549429	-3.215513448	-0.852264671
5.527453535	-3.75620667	-0.859543983
5.185021099	-3.254102701	-0.847804729
4.588094549	-3.63781547	-0.859307836
4.385499433	-3.223738587	-0.850874574
5.519178131	-3.775386787	-0.860054258
5.184224501	-3.275815038	-0.84931374
4.592380074	-3.664216126	-0.862211835
4.380353851	-3.240703542	-0.851801305
5.520639473	-3.801301581	-0.8620953
5.190029467	-3.301806779	-0.851920252
4.58574569	-3.682004783	-0.863083076
4.379900513	-3.261207698	-0.853654713
5.500799737	-3.812570651	-0.860819641
5.186547782	-3.321988052	-0.853017751
4.586741311	-3.706005358	-0.865406287
4.374618411	-3.278184568	-0.854581445
5.494771314	-3.833401575	-0.861712638
5.178829143	-3.339495026	-0.853429321
4.58149145	-3.725053191	-0.866567922
4.360596522	-3.288615779	-0.853809207
5.478925962	-3.847391163	-0.861074807
5.173544499	-3.358603744	-0.854252402
4.566978209	-3.736585277	-0.865987132
4.347338686	-3.299589041	-0.853191404
5.473575989	-3.86876204	-0.8620953
5.171507816	-3.379879252	-0.855624263
4.550146235	-3.746177044	-0.864970695
4.334839657	-3.311111744	-0.852728038
5.458448657	-3.883236758	-0.861585083
5.156148999	-3.392462778	-0.854801123
4.516536865	-3.741813874	-0.860759865
4.330144222	-3.328610304	-0.853809207
5.431187439	-3.888993556	-0.859161262
5.146542479	-3.408812425	-0.854938332
4.522515117	-3.770224372	-0.864099514
4.339447929	-3.3569928	-0.857670455
5.14018105	-3.427333405	-0.855624263
4.513959015	-3.786624951	-0.864680302
4.334585898	-3.374538607	-0.858751624
5.132109416	-3.444743413	-0.856035833
4.508368959	-3.805561293	-0.865841936
4.332767671	-3.394523572	-0.860450595
5.107564217	-3.451044615	-0.853703682
4.516278754	-3.836028217	-0.869617176
4.320781039	-3.406576968	-0.860141722
5.09940955	-3.468369401	-0.854115193
4.512762211	-3.856937131	-0.871214402
4.314179466	-3.422887244	-0.860913961
5.10263957	-3.493510814	-0.856447344
4.49790754	-3.868183374	-0.870633614
4.275862638	-3.413914573	-0.855353683
5.093528772	-3.510273317	-0.856721763
4.48377443	-3.880022281	-0.870198023
4.290015202	-3.446818849	-0.860296159
5.084363332	-3.527012773	-0.856996124
4.471849653	-3.893759916	-0.870198022
4.279420057	-3.459964338	-0.860296159
5.081640158	-3.548265575	-0.858367984
4.455417442	-3.903549295	-0.869326782
4.268784982	-3.473077093	-0.860296159
5.074782048	-3.566687	-0.859053913
4.458264322	-3.930285444	-0.87223084
4.266519004	-3.493041926	-0.86199513
5.078371628	-3.592536449	-0.861523215
4.448405504	-3.945914583	-0.87266643
4.258070007	-3.507999657	-0.862458496
5.072974445	-3.612121542	-0.862483506
4.431850064	-3.955590397	-0.871795248
4.251851299	-3.5248301	-0.863385171
5.062673656	-3.62824513	-0.862620715
4.428526947	-3.977101281	-0.87353767
4.241776052	-3.538490944	-0.863539665
5.049912091	-3.642601185	-0.862346355
4.422177435	-3.995976184	-0.874699247
4.227872877	-3.548946902	-0.862921862
5.025887815	-3.648765993	-0.860151356
4.209417447	-3.555525884	-0.861377328
5.025067091	-3.671765166	-0.861934786
4.201500709	-3.570982803	-0.86199513
5.024152603	-3.694793539	-0.863718216
4.197282909	-3.589635432	-0.86338517
5.025532354	-3.719618743	-0.865913157
4.179510164	-3.596695388	-0.861995129
5.017274444	-3.737386396	-0.866461878
4.166215499	-3.607560939	-0.861531764
5.006577202	-3.75335578	-0.866599087
4.148423884	-3.614484437	-0.860141723
4.989503381	-3.76452187	-0.865638796
4.146230188	-3.635010391	-0.86199513
4.974774808	-3.777415666	-0.865090017
4.148395351	-3.65947833	-0.864775269
4.956866364	-3.787848644	-0.863992576
4.139365429	-3.674155812	-0.865238636
4.95542947	-3.810888366	-0.865775947
4.122178346	-3.681572939	-0.864002972
4.958598494	-3.837592251	-0.868382459
4.122621922	-3.704768351	-0.866474239
4.96399403	-3.866177392	-0.87140054
4.109037986	-3.715411004	-0.866010873
4.955227653	-3.883832852	-0.871949319
4.087388906	-3.718691512	-0.863848537
4.944844464	-3.90024392	-0.872223679
4.082519807	-3.737218156	-0.865238636
4.940614047	-3.921554167	-0.87359554
4.077574971	-3.755749789	-0.866628675
4.908436825	-3.920620111	-0.87002868
4.073280128	-3.774957815	-0.868173211
4.06890525	-3.794174653	-0.869717687
4.059407297	-3.808667943	-0.870181053
4.049140271	-3.822460521	-0.870489983
4.053154102	-3.849834615	-0.873887925
4.05060957	-3.871125469	-0.875895769
4.026606948	-3.871892544	-0.873270123
4.022519955	-3.891784618	-0.874969094
4.013392845	-3.906863752	-0.875586895
4.009152403	-3.926763016	-0.877285867
3.999197118	-3.941124787	-0.877749174
3.97796658	-3.944332409	-0.875741332
3.965147483	-3.95582034	-0.875586896
3.954387398	-3.969366337	-0.875895768
3.828519806	-3.572315751	-0.869401861
3.936629762	-3.975862804	-0.874660163
3.938273235	-4.002005947	-0.877749175
3.802942643	-3.592352825	-0.868582893
3.791903784	-3.604003342	-0.868582894
3.759404686	-3.661966142	-0.871367325
3.760833939	-3.685911725	-0.874315608
3.750210456	-3.698124992	-0.874479401
3.733945078	-3.70474951	-0.873332847
3.718372577	-3.712005867	-0.872350086
3.701398683	-3.717803371	-0.871039796
2.209064965	-2.391801471	-0.029209159
3.691362803	-3.73054413	-0.871367325
2.197659472	-2.394147656	-0.029155334
3.684050637	-3.746071568	-0.872350086
2.17008586	-2.378716727	-0.028886208
3.67805695	-3.763000229	-0.873660434
2.156732726	-2.378696067	-0.02880547
3.667182144	-3.774974352	-0.873824227
2.14473905	-2.38010172	-0.028742675
3.651472221	-3.781949126	-0.872841466
2.136092755	-2.38518055	-0.028724732
3.641218284	-3.794557539	-0.873169054
2.124776164	-2.387241096	-0.028670907
3.634325581	-3.810707951	-0.874315608
2.104191516	-2.378768883	-0.028491489
3.639583413	-3.839738981	-0.878410329
2.097544081	-2.385964455	-0.02850046
3.629815635	-3.853041355	-0.87890171
2.075081845	-2.375068453	-0.028294131
3.60246997	-3.84759646	-0.875134517
2.048772938	-2.359527214	-0.028033975
3.58728866	-3.855019793	-0.874315608
1.897773788	-2.368475386	0.002065859
2.04087111	-2.365044646	-0.028025005
3.578123836	-3.868904097	-0.874970723
1.878040513	-2.35864047	0.002052245
2.025794043	-2.362186071	-0.027917353
3.568240173	-3.882042458	-0.875462105
1.854662576	-2.344001572	0.002034548
2.017240075	-2.36686784	-0.027899412
3.558309526	-3.8951561	-0.875953484
1.848698658	-2.351252749	0.002035909
2.000274898	-2.361600048	-0.027764849
3.55164759	-3.911897825	-0.877263833
1.824237666	-2.334849386	0.00201685
1.973057685	-2.344010188	-0.027486753
1.821971817	-2.346754328	0.002022295
1.958799662	-2.341615592	-0.027388072
1.801325351	-2.33491414	0.00200732
1.963751939	-2.362224219	-0.027558519
1.800237458	-2.348365799	0.002014127
1.954584775	-2.36592505	-0.027531607
1.794236147	-2.355468772	0.002015489
1.946048163	-2.370364645	-0.027513664
1.769499328	-2.337839087	0.001995749
1.941295214	-2.379423247	-0.027549548
1.774339899	-2.359240842	0.002009363
1.930837315	-2.381484172	-0.027504694
1.768290717	-2.366275429	0.002010724
1.902818747	-2.361700617	-0.027208654
1.753869002	-2.362054929	0.002002556
1.884314566	-2.353476691	-0.02704718
1.738896185	-2.356963429	0.001993707
1.865878854	-2.345161365	-0.026885703
1.730474524	-2.360674284	0.001992346
1.868598071	-2.363425328	-0.027029237
1.723812628	-2.366780479	0.001993026
1.849600853	-2.354207175	-0.026858792
1.981937962	-2.342550669	-0.056024992
1.720060867	-2.376918757	0.00199711
1.828216387	-2.341741917	-0.026652461
1.976028805	-2.350150683	-0.056061504
1.705755376	-2.372441455	0.001988942
1.803248291	-2.324427381	-0.026392305
1.962398419	-2.348529508	-0.055878954
1.706606511	-2.389055562	0.001998472
1.797940097	-2.332324583	-0.026419219
1.95710024	-2.356846699	-0.055933719
1.692323768	-2.384494245	0.001990303
1.809018441	-2.361644574	-0.026688345
1.953042032	-2.366695855	-0.056024992
1.679813885	-2.38231946	0.001984177
1.802370036	-2.367979268	-0.026697315
1.937529889	-2.362626043	-0.055787677
1.666759557	-2.379271545	0.001977371
1.79389035	-2.371902535	-0.026679374
1.938483592	-2.378634787	-0.056024992
1.65545353	-2.37862852	0.001972606
1.769183558	-2.354212612	-0.026419219
1.923625793	-2.375246886	-0.05580593
1.647010763	-2.382051215	0.001971244
1.757764562	-2.354020642	-0.026356421
1.920717706	-2.386589822	-0.055933719
1.632334504	-2.376377261	0.001962396
1.759471593	-2.371448221	-0.026490984
1.917758053	-2.397937194	-0.056061504
1.61658128	-2.368984037	0.001952186
1.733200442	-2.351078534	-0.026203917
1.604255639	-2.366482901	0.001946059
1.728342751	-2.35961179	-0.026239801
1.59363632	-2.366416946	0.001941975
1.742866575	-2.394818078	-0.026571723
1.585256656	-2.369632567	0.001940614
1.716175577	-2.373413488	-0.026275685
1.572444385	-2.366156235	0.001933807
1.700134487	-2.366485868	-0.026141122
1.564626811	-2.370134759	0.001933127
1.696932822	-2.37738786	-0.026203917
1.555154556	-2.371578879	0.001930404
1.690787991	-2.384214277	-0.026221858
1.543505001	-2.369635537	0.001924958
1.682889447	-2.388572788	-0.026212888
1.532425208	-2.368482779	0.001920194
1.669245719	-2.384713442	-0.026114209
1.522989114	-2.369807906	0.001917471
1.657925344	-2.384076535	-0.026051413
1.516249474	-2.375312259	0.001918152
1.659697466	-2.402315187	-0.026194947
1.506277629	-2.375729957	0.001914748
1.638738841	-2.387608897	-0.025979645
1.494718917	-2.373570584	0.001909303
1.620702721	-2.376927795	-0.025809199
1.753628987	-2.381519264	-0.053998673
1.48424814	-2.373057974	0.001905219
1.599382942	-2.36119124	-0.025584927
1.73863944	-2.376398051	-0.053761357
1.481182205	-2.3843962	0.001910664
1.58319937	-2.352812976	-0.025441393
1.723698049	-2.371207409	-0.053524041
1.471234585	-2.38467372	0.001907261
1.57319508	-2.35350223	-0.025396539
1.711146443	-2.369189589	-0.053359745
1.46756884	-2.395144838	0.001912026
1.562095213	-2.352486529	-0.025333743
1.708533189	-2.380926805	-0.053505787
1.438486529	-2.349890135	-0.099103225
1.457614477	-2.39536468	0.001908622
1.554870547	-2.357267961	-0.025333743
1.699479284	-2.383714934	-0.053451022
1.432827837	-2.356854204	-0.099211065
1.445603889	-2.392122699	0.001902496
1.541054858	-2.351990025	-0.025226092
1.672508803	-2.361177485	-0.052830347
1.414226963	-2.342417362	-0.098420252
1.439287344	-2.398261316	0.001903857
1.532740861	-2.355030737	-0.025208151
1.679642413	-2.386739035	-0.053286725
1.401381054	-2.337317005	-0.098024843
1.430898838	-2.400947647	0.001902496
1.527137142	-2.362241381	-0.025235062
1.672312101	-2.391880949	-0.053286725
1.404940142	-2.359637663	-0.098779713
1.413849189	-2.38897531	0.001889563
1.519342406	-2.366074105	-0.025226092
1.654699009	-2.382219181	-0.052958132
1.385995978	-2.344151356	-0.097952952
1.40701995	-2.394163889	0.001890244
1.508312251	-2.364822554	-0.025163296
1.642271843	-2.379878026	-0.052793836
1.388917302	-2.365628295	-0.098671873
1.396643997	-2.393287125	0.00188616
1.498374228	-2.365215366	-0.025118442
1.62082921	-2.364288869	-0.052337458
1.376619776	-2.361244947	-0.098312413
1.386788143	-2.393234367	0.001882756
1.491643324	-2.370647399	-0.025127413
1.600060782	-2.349417091	-0.051899334
1.372373163	-2.370646513	-0.098528085
1.376446992	-2.392277309	0.001878672
1.481713599	-2.370972745	-0.025082558
1.589483644	-2.349346307	-0.051789803
1.362603574	-2.370513748	-0.098348355
1.367612986	-2.393884003	0.00187663
1.471795941	-2.371259237	-0.025037704
1.582826182	-2.355041654	-0.051808057
1.35581981	-2.375550882	-0.098384303
1.357301845	-2.392849528	0.001872546
1.463464636	-2.37406105	-0.025019763
1.555052051	-2.329119821	-0.051132617
1.345076489	-2.373613117	-0.098132682
1.349954345	-2.397002364	0.001872546
1.455130021	-2.37683426	-0.02500182
1.563925197	-2.358043536	-0.051662018
1.340728139	-2.382954488	-0.098348355
1.339665819	-2.395895957	0.001868462
1.448870142	-2.382996129	-0.025019763
1.541831646	-2.340287502	-0.051169129
1.329999558	-2.380949323	-0.098096734
1.333279696	-2.401743309	0.001869823
1.441552302	-2.387429951	-0.025019763
1.554354511	-2.375124685	-0.051826315
1.31299506	-2.367539443	-0.097377812
1.675524097	-2.381538413	0.025259206
1.32252631	-2.399691898	0.001865059
1.433706851	-2.390983791	-0.025010791
1.541611135	-2.371499223	-0.051643764
1.303315458	-2.367179211	-0.097198082
1.663053918	-2.379291274	0.025181137
1.309878057	-2.394087856	0.001857571
1.421248493	-2.386779267	-0.024921082
1.523481109	-2.359418711	-0.05127866
1.295567614	-2.370289679	-0.09716214
1.652324405	-2.379454038	0.025129093
1.301572442	-2.396337845	0.00185621
1.410356547	-2.385103196	-0.024858287
1.521633099	-2.372497788	-0.05146121
1.642315399	-2.368126892	-0.080397491
1.281616919	-2.361956099	-0.096658891
1.639906032	-2.37710431	0.025051026
1.295163528	-2.402079998	0.001857571
1.401007181	-2.385969878	-0.024822403
1.516496025	-2.380527875	-0.051534233
1.624266912	-2.357514379	-0.079867636
1.273890571	-2.364997043	-0.096622949
1.629778945	-2.378000145	0.025007654
1.289675576	-2.409568858	0.001860294
1.390658475	-2.385073722	-0.024768578
1.507581731	-2.38263445	-0.051479468
1.611945087	-2.355062426	-0.079616656
1.258618225	-2.353912215	-0.096011867
1.613471292	-2.369763809	0.024868866
1.278992797	-2.407332674	0.001855529
1.383334583	-2.389328865	-0.024768578
1.496540673	-2.381322813	-0.051351679
1.604150198	-2.359170057	-0.079588775
1.257012705	-2.368355389	-0.096443219
1.60451262	-2.372217895	0.024842845
1.268802297	-2.405937926	0.001851445
1.37151244	-2.385759379	-0.02468784
1.485522049	-2.379965649	-0.051223894
1.592988084	-2.358282076	-0.079393563
1.243685394	-2.360706517	-0.095975918
1.593881153	-2.372149255	0.024790799
1.249357401	-2.386784151	0.001833747
1.356750943	-2.376929217	-0.024553276
1.475579331	-2.380263109	-0.051132617
1.581846548	-2.357347821	-0.079198358
1.236436989	-2.364511088	-0.095975918
1.584375344	-2.373701357	0.024756104
1.242028997	-2.390605879	0.001833747
1.347480094	-2.377600784	-0.024517393
1.464600466	-2.378818934	-0.051004832
1.584032329	-2.376329838	-0.079672431
1.222271515	-2.354988124	-0.095436727
1.573217356	-2.372717148	0.024695383
1.230564088	-2.386406073	0.001827621
1.337727498	-2.37736616	-0.024472538
1.452079658	-2.374770997	-0.050822282
1.560729679	-2.357008225	-0.078863715
1.223278227	-2.374718221	-0.096083758
1.567030691	-2.379202583	0.024712732
1.222325746	-2.388389718	0.00182626
1.327989069	-2.377094378	-0.024427684
1.446863061	-2.382633274	-0.050895301
1.557885784	-2.36846644	-0.079086808
1.206888659	-2.360663991	-0.095364837
1.559724007	-2.383999042	0.024712732
1.213181105	-2.38856216	0.001823537
1.320689988	-2.381157327	-0.024427684
1.439030077	-2.386204745	-0.050877047
1.538036628	-2.353987798	-0.078445417
1.196927493	-2.359008309	-0.095149157
1.427484971	-2.381491011	0.050161438
1.548588374	-2.382903692	0.024652013
1.20494715	-2.390487044	0.001822176
1.313860801	-2.386073857	-0.024436656
1.430161416	-2.388035063	-0.050822282
1.540058621	-2.372949734	-0.07891949
1.189684581	-2.362669427	-0.095149157
1.410966576	-2.370394614	0.049836302
1.538016538	-2.382602744	0.024599967
1.19850232	-2.395961099	0.001823537
1.305574963	-2.388338739	-0.024418713
1.419761879	-2.387255431	-0.050712751
1.535479449	-2.381864229	-0.079058927
1.181983703	-2.365414133	-0.095113215
1.404705302	-2.376433625	0.049872426
1.526381646	-2.380575876	0.024530575
1.193369074	-2.404105509	0.001826941
1.292995162	-2.382665049	-0.024320034
1.411922726	-2.390738983	-0.050694497
1.517384028	-2.369727543	-0.078501192
1.177384926	-2.374401183	-0.095328888
1.397913918	-2.381594318	0.04989049
1.514236582	-2.377656606	0.024452507
1.182452774	-2.40057869	0.001821495
1.280462417	-2.376937041	-0.024221355
1.4050872	-2.395922005	-0.050712751
1.513325302	-2.379432384	-0.07866851
1.162152954	-2.361861966	-0.094681864
1.387076445	-2.379825167	0.049764047
1.503727586	-2.377220466	0.024400461
1.168056425	-2.389820231	0.001810604
1.273635687	-2.381735986	-0.024230326
1.395717401	-2.396765358	-0.050639731
1.510289079	-2.390824988	-0.078891603
1.153585997	-2.362722187	-0.094574024
1.363241575	-2.355512376	0.049167963
1.496959187	-2.382669446	0.024409136
1.156791847	-2.385294589	0.001804478
1.26632254	-2.38563209	-0.024230325
1.385855264	-2.39670847	-0.050548454
1.494446834	-2.381899324	-0.078445417
1.141974816	-2.357256524	-0.094214564
1.366469955	-2.377888406	0.04954729
1.493877239	-2.394037417	0.024478529
1.150335597	-2.390634546	0.00180584
1.258997657	-2.389506076	-0.024230326
1.37849568	-2.400948869	-0.050548454
1.485546181	-2.383927804	-0.078361755
1.131273936	-2.353543315	-0.093926994
1.371555956	-2.403779952	0.04999887
1.484945024	-2.396059614	0.024452507
1.138687559	-2.385128208	0.001799033
1.246099918	-2.382724001	-0.024122674
1.365181217	-2.394743468	-0.050329392
1.47138664	-2.377424244	-0.077999224
1.129640366	-2.368729389	-0.094394294
1.352839545	-2.387968068	0.049583415
1.476014612	-2.398049164	0.024426484
1.13008045	-2.38589927	0.001796991
1.240626714	-2.390085928	-0.024158558
1.349455259	-2.384128547	-0.050019057
1.454140439	-2.365746772	-0.077469376
1.119376052	-2.365860345	-0.094142673
1.345997078	-2.392978744	0.049601478
1.464999856	-2.396594049	0.024365764
1.120628861	-2.384829592	0.001793587
1.226418742	-2.380546899	-0.024023995
1.341154826	-2.386514152	-0.049982546
1.448958847	-2.373609852	-0.077580926
1.107016882	-2.358427575	-0.093711321
1.332799299	-2.386621661	0.049384722
1.450375461	-2.389110296	0.024244327
1.110772083	-2.382818247	0.001789503
1.21728866	-2.380737081	-0.023988111
1.329929566	-2.383632415	-0.049836503
1.447370237	-2.387446765	-0.077887682
1.101041618	-2.364530626	-0.093819154
1.206446501	-2.37626585	0.073508837
1.32401653	-2.388076165	0.049330531
1.439424883	-2.387554354	0.024183607
1.103036762	-2.385307374	0.001788823
1.205906406	-2.376435043	-0.023907375
1.318250214	-2.379829944	-0.04967221
1.428180389	-2.372179223	-0.077246284
1.094620272	-2.369712037	-0.093891052
1.188738336	-2.345239135	-0.119074162
1.198250927	-2.378170615	0.073453695
1.315237423	-2.38949924	0.049276343
1.429524785	-2.387669271	0.024140237
1.094462679	-2.385953377	0.001786781
1.200408957	-2.383695898	-0.023943257
1.309979142	-2.382110767	-0.049635699
1.419869953	-2.374833621	-0.077190516
1.090258972	-2.379418724	-0.094142673
1.18153767	-2.348874989	-0.119074162
1.186031599	-2.37200069	0.07315039
1.305023719	-2.388258748	0.049167963
1.423214921	-2.393762792	0.024157585
1.083410224	-2.381107979	0.001780655
1.191302243	-2.383789485	-0.023907374
1.298831994	-2.379098026	-0.049489656
1.405943219	-2.368004701	-0.076827985
1.068481427	-2.350909625	-0.092884561
1.168971793	-2.341763238	-0.118531268
1.184524809	-2.387268957	0.073508837
1.297213825	-2.391372305	0.049149899
1.41027191	-2.388646125	0.024062168
1.075688589	-2.383509165	0.001779974
1.183983235	-2.387433191	-0.023907375
1.286762957	-2.374281221	-0.049307106
1.396133149	-2.368001485	-0.076688548
1.068245937	-2.369664482	-0.093495642
1.160008098	-2.34175786	-0.118350294
1.167039358	-2.370265195	0.072874666
1.286078786	-2.388298233	0.049005395
1.398385325	-2.385197703	0.023984101
1.070413822	-2.391361652	0.001783377
1.175328518	-2.388362813	-0.023880461
1.278525268	-2.376456803	-0.049270594
1.391891936	-2.377449448	-0.076855873
1.05689179	-2.363807717	-0.093136182
1.15678436	-2.353374507	-0.118757468
1.16458885	-2.383714234	0.073177964
1.273560764	-2.382533415	0.048806699
1.382508451	-2.374785574	0.023836641
1.062666407	-2.39372059	0.001782697
1.166679308	-2.389261756	-0.023853548
1.271699444	-2.381250035	-0.049288852
1.387103436	-2.386029589	-0.076995303
1.046393893	-2.35973037	-0.092848611
1.143865833	-2.345240155	-0.118169335
1.154654046	-2.381879051	0.073012531
1.263902042	-2.382013383	0.048716383
1.380220597	-2.387673167	0.023923382
1.056526492	-2.399715038	0.001784739
1.155855623	-2.385630584	-0.023781782
1.264856163	-2.386023533	-0.049307106
1.381775621	-2.393736674	-0.077106853
1.050011669	-2.387629342	-0.093819154
1.141452283	-2.358629596	-0.118666988
1.141708393	-2.373699389	0.072654084
1.25146306	-2.376148542	0.048517687
1.37089771	-2.388427195	0.023888685
1.046758427	-2.397446471	0.001780655
1.142032535	-2.375647065	-0.023647219
1.2528742	-2.381044808	-0.049124555
1.369951494	-2.390159433	-0.076855873
1.029098764	-2.359694359	-0.092596991
1.135507903	-2.364822206	-0.118802708
1.130545892	-2.369071526	0.072405928
1.243704062	-2.3790907	0.048499627
1.377922224	-2.417816517	0.024140237
1.036219641	-2.393305228	0.001775209
1.135599722	-2.38094459	-0.02366516
1.246951939	-2.387535984	-0.049179321
1.358162397	-2.386532159	-0.076604893
1.024631231	-2.369261288	-0.092848612
1.122232395	-2.355668611	-0.118169334
1.129688568	-2.386080947	0.072819517
1.238701721	-2.387332722	0.048589943
1.358679077	-2.401145547	0.023932056
1.026110684	-2.390040755	0.001770444
1.121874172	-2.370859191	-0.023530597
1.235479952	-2.383361562	-0.049015024
1.352309544	-2.393298541	-0.076688548
1.014994387	-2.366882834	-0.092632939
1.121403185	-2.372648156	-0.118847948
1.114288309	-2.372344471	0.072295636
1.228167285	-2.384899376	0.048463499
1.351306054	-2.405302625	0.023932056
1.01798998	-2.391337336	0.001769083
1.114170253	-2.373384787	-0.023521626
1.224045326	-2.379139043	-0.048850728
1.338602571	-2.386102688	-0.076326025
1.019459488	-2.397575763	-0.093711322
1.114542825	-2.376981825	-0.118893188
1.106582658	-2.374845815	0.072268069
1.219479693	-2.385985389	0.048409311
1.3361267	-2.395464096	0.023793269
1.009482045	-2.391685354	0.001767041
1.107305691	-2.37769837	-0.023530597
1.214466964	-2.378430874	-0.048759451
1.320088694	-2.370112568	-0.075684627
1.002005288	-2.376749646	-0.092776721
1.105138424	-2.375861037	-0.118666988
1.097194374	-2.373692763	0.072130204
1.213058429	-2.391498663	0.048445435
1.328771268	-2.399552112	0.023793269
0.999437454	-2.388313675	0.001762276
1.100005776	-2.381084354	-0.023530597
1.20445269	-2.376794373	-0.04864992
1.318131889	-2.383773889	-0.075991382
0.995479557	-2.381656629	-0.092848612
1.084450743	-2.350214218	-0.117219273
1.088240359	-2.373413131	0.072019913
1.203467915	-2.390743739	0.048355119
1.31851282	-2.398359676	0.023741225
0.990189491	-2.386750509	0.001758873
1.08894635	-2.376266446	-0.023449859
1.194010621	-2.37422572	-0.048522135
1.308407257	-2.38342554	-0.075851952
0.982429569	-2.370851222	-0.092309421
1.080145633	-2.359888722	-0.117535961
0.98343986	-2.388691783	0.096031484
1.083022954	-2.381290364	0.072157778
1.197468022	-2.397108063	0.048409311
1.310669516	-2.401515802	0.02373255
0.984003476	-2.392551493	0.001760915
1.084133721	-2.385058038	-0.023503685
1.186720962	-2.377877714	-0.048522135
1.297262086	-2.380406472	-0.075628852
0.98008785	-2.385871191	-0.092776721
1.067531866	-2.351366494	-0.116947834
0.974974033	-2.388922192	0.095920031
1.078589458	-2.390980148	0.072350786
1.187887831	-2.396291529	0.048318995
1.3023429	-2.403767176	0.023715202
0.974393475	-2.390003171	0.001756831
1.073523339	-2.381080024	-0.023431918
1.178532736	-2.379715415	-0.048485623
1.287099159	-2.379100013	-0.075461534
0.961079672	-2.36017462	-0.091662397
1.053750069	-2.340056295	-0.116223973
0.966516008	-2.389122915	0.095808585
1.068799397	-2.388803218	0.072185346
1.177882574	-2.394541658	0.048210615
1.295435786	-2.408632143	0.023723876
0.965932468	-2.390199878	0.001754789
1.064580443	-2.380711046	-0.023396034
1.172108246	-2.385114683	-0.048522135
1.279321214	-2.382157137	-0.075433647
0.961689336	-2.382572916	-0.09241726
1.045343761	-2.340541708	-0.116088253
0.956950225	-2.386511844	0.095585686
1.063898329	-2.397553346	0.072350786
1.160443684	-2.377478	0.047795163
1.285214368	-2.407302333	0.02367183
0.957479382	-2.390367137	0.001752747
1.057676954	-2.384879987	-0.023405004
1.162594229	-2.38420595	-0.048430861
1.266363932	-2.375485645	-0.075099004
0.952519238	-2.380872934	-0.09223753
1.03208943	-2.330037075	-0.115409639
0.948516855	-2.386650574	0.09547424
1.049692825	-2.38525193	0.071882047
1.15358	-2.381926924	0.047813224
1.269862841	-2.396213391	0.02352437
0.950879219	-2.395152205	0.001754108
1.04995269	-2.38719842	-0.023396034
1.153967754	-2.385061589	-0.048376096
1.260005074	-2.381126616	-0.075154779
0.941158361	-2.373564987	-0.091842127
1.032971743	-2.351484921	-0.11631446
0.938992887	-2.383970598	0.095251341
1.047967681	-2.401287611	0.072268069
1.147133087	-2.387257362	0.047849352
1.261108788	-2.397443111	0.023498347
0.939865252	-2.388752701	0.001747301
1.043823183	-2.393158081	-0.023422947
1.141452686	-2.37777436	-0.048157034
1.249440217	-2.378786343	-0.074959574
0.926927269	-2.358769145	-0.091159148
1.020964891	-2.343652915	-0.115771566
0.928767592	-2.379392931	0.094954145
1.034243367	-2.389812992	0.071826905
1.134210025	-2.379032591	0.047614531
1.255135947	-2.403960059	0.02352437
0.931805688	-2.389761462	0.00174594
1.034094352	-2.390842337	-0.023369122
1.131142888	-2.374946353	-0.048029245
1.240749986	-2.379949212	-0.074875911
0.914609168	-2.348564652	-0.090655906
1.014166012	-2.34769116	-0.115816806
0.918939776	-2.375707072	0.094694098
1.027695064	-2.394812006	0.071882047
1.12519585	-2.378885762	0.047542276
1.244994292	-2.402472403	0.023472324
0.932759161	-2.414063125	0.001761596
1.025572124	-2.391246814	-0.023342209
1.12385136	-2.378405527	-0.048029246
1.237577051	-2.391734644	-0.075126891
0.914235629	-2.369073841	-0.091338878
1.010892113	-2.359974261	-0.11626922
0.912719858	-2.381314417	0.09480555
1.015646407	-2.386916017	0.071551175
1.120440669	-2.387757439	0.047650656
1.233958863	-2.399166865	0.023402931
0.925706091	-2.417847326	0.001762276
1.015883039	-2.388860706	-0.023288384
1.115276073	-2.37912631	-0.04797448
1.222926946	-2.381293084	-0.074680706
0.908033924	-2.374667925	-0.091446718
1.007942784	-2.373178714	-0.116766866
0.911795904	-2.400919203	0.09547424
1.000158873	-2.370679539	0.070972145
1.110156211	-2.384838687	0.047524216
1.225228634	-2.400269512	0.023376908
0.914737027	-2.411326248	0.001755469
1.005052836	-2.383673526	-0.023207646
1.100804461	-2.367124448	-0.047664144
1.209260596	-2.372565343	-0.074290288
0.901806494	-2.380246161	-0.091554557
0.999494166	-2.373497941	-0.116631147
1.001367265	-2.394025184	0.071578749
1.099480987	-2.380971592	0.047379708
1.216955136	-2.402232917	0.023359559
0.914723018	-2.433778639	0.001769764
0.996578156	-2.383977952	-0.023180733
1.093955924	-2.371398557	-0.047682399
1.202878341	-2.378048129	-0.074346063
0.986434602	-2.362725329	-0.115952533
0.986359686	-2.378618383	0.071027294
1.095918609	-2.392514537	0.047542276
1.208681207	-2.404168494	0.023342213
0.906554104	-2.434699339	0.001768402
0.986962478	-2.381481545	-0.023126908
1.087091409	-2.375652727	-0.047700656
1.087332513	-2.393134662	0.047488088
1.191032101	-2.387285284	0.023142706
0.900118504	-2.44028364	0.001770444
0.978511538	-2.381723487	-0.023099996
1.08021115	-2.379887201	-0.04771891
0.972877861	-2.387403102	0.071110011
1.078342166	-2.392813126	0.047415836
1.177047403	-2.3774858	0.023012593
0.904982293	-2.476847465	0.001794949
0.968559698	-2.378231668	-0.023037199
1.071673388	-2.380454892	-0.047664145
1.175181873	-2.377368909	-0.07398354
0.879723303	-2.4108483	-0.09230942
0.970292425	-2.38558465	-0.116631147
0.884732399	-2.441869566	0.096551572
0.962553715	-2.382961511	0.070889429
1.06936408	-2.392459022	0.047343584
1.181652587	-2.405318379	0.023246797
0.888531285	-2.455163861	0.001777251
0.960884562	-2.380264604	-0.023028228
1.064365142	-2.383731586	-0.047664145
0.950268893	-2.357048634	-0.115092952
0.873523867	-2.434226038	0.09614293
0.953380711	-2.381263519	0.070751564
1.064045101	-2.400298748	0.0474339
1.174705711	-2.409831308	0.023255471
0.880994758	-2.457878477	0.001777251
0.953205911	-2.382272857	-0.023019258
1.063524449	-2.401612949	-0.047956226
0.944595782	-2.380460666	0.070641273
1.056273611	-2.402636584	0.047415836
1.156857398	-2.391819246	0.023047291
0.870104689	-2.451145897	0.001770444
0.948473202	-2.39169295	-0.023082053
1.052131086	-2.395710012	-0.047773675
0.85326329	-2.424457828	0.095548537
0.938019842	-2.385207843	0.070696421
1.043303369	-2.39303452	0.047162952
1.151677119	-2.399864743	0.023090661
0.866891814	-2.46606806	0.001779293
0.938204878	-2.387146125	-0.023010287
1.040384718	-2.388843248	-0.047572867
1.139008515	-2.377187596	-0.073537347
0.849079148	-2.41863353	-0.092201588
0.927074981	-2.361975254	-0.114911992
0.840230547	-2.411022332	0.094916996
0.929608774	-2.38528023	0.070613705
1.032385881	-2.387964418	0.047000384
1.137860976	-2.389843915	0.022960547
0.857349511	-2.463049366	0.001775209
0.927247683	-2.380695649	-0.022920579
1.033447346	-2.392941931	-0.047591125
1.129993381	-2.377059555	-0.073425804
0.841326794	-2.420283113	-0.092165639
0.911495043	-2.343394876	-0.113871445
0.839348907	-2.432481683	0.09565999
0.916884573	-2.374133713	0.070200116
1.019539556	-2.378255269	0.046747496
1.129242372	-2.390611132	0.022934526
0.840991288	-2.440141695	0.001756831
0.923539994	-2.392857922	-0.023010287
1.023739391	-2.390586489	-0.047481594
1.115446594	-2.365145372	-0.072951724
0.831946092	-2.417183299	-0.09194996
0.910049778	-2.361094301	-0.114595305
0.833174424	-2.438828057	0.095808585
0.918885373	-2.401208919	0.070917003
1.015367333	-2.388733127	0.046892004
1.122751419	-2.395875248	0.022951875
0.836084588	-2.450281607	0.001762276
0.919051997	-2.40315207	-0.023082053
1.017181976	-2.395556804	-0.047518102
1.111574166	-2.37579974	-0.073174824
0.816790395	-2.397021679	-0.091087257
0.889970763	-2.330278768	-0.112966631
0.811281157	-2.39877403	0.094136861
0.90726147	-2.392800415	0.070586131
1.002209542	-2.378016636	0.046621056
1.114131038	-2.396588276	0.022925852
0.82792322	-2.450940469	0.001760915
0.912383508	-2.407830395	-0.023099996
1.00788795	-2.39405869	-0.047426829
1.094600763	-2.358344641	-0.072533426
0.817737704	-2.424136223	-0.092021857
0.893423927	-2.361027806	-0.114323858
0.909759007	-2.421774163	0.071358167
0.991439833	-2.37277744	0.046458488
1.105516966	-2.397270878	0.022899829
0.828645179	-2.478126882	0.001778613
0.906046504	-2.413426761	-0.023126908
0.994761532	-2.383299079	-0.047153001
1.093631197	-2.375311555	-0.072951724
0.887578909	-2.367499284	-0.114504818
0.83363985	-2.515639494	0.098520499
0.900581563	-2.419869735	0.071220302
0.98912999	-2.387816335	0.046693308
1.091917449	-2.387011344	0.022769716
0.82292379	-2.486353682	0.001782697
0.898637948	-2.416195134	-0.023126908
0.984004467	-2.378025112	-0.046988705
1.087169184	-2.380474212	-0.073007499
0.800025592	-2.420568313	-0.091698339
0.884832875	-2.382385396	-0.115092952
0.881050925	-2.389794376	0.070255258
0.975722662	-2.376041357	0.046404296
1.089134014	-2.400366789	0.022865131
0.799104311	-2.439450386	0.001747301
0.892603713	-2.422693935	-0.023162791
0.979739724	-2.388433	-0.047134744
0.868785393	-2.676588188	0.104613018
0.972198201	-2.388284303	0.046584929
1.080533509	-2.400961211	0.02283911
0.8144367	-2.512283912	0.001797672
0.892023254	-2.444208233	-0.023342209
0.96864137	-2.382165768	-0.046952193
0.852012836	-2.652600732	0.103572835
0.879971611	-2.432756036	0.071358167
0.960751143	-2.381056436	0.046386233
1.072754815	-2.403351736	0.022830436
0.811307227	-2.529053935	0.001807882
0.883840464	-2.44505249	-0.023324268
0.95983343	-2.381416852	-0.046879174
1.062365711	-2.383987938	-0.072812294
0.77649393	-2.424022356	-0.091554558
0.865242773	-2.397005689	-0.115409639
0.833276975	-2.621869281	0.102272597
0.870481101	-2.429798091	0.071192727
0.951213878	-2.37842277	0.046277856
1.062138208	-2.399316738	0.022761041
0.874986773	-2.443986911	-0.023288384
0.955119309	-2.390849719	-0.047006959
0.863022453	-2.432457186	0.071192727
0.947965294	-2.391553941	0.046476549
1.053968228	-2.400732803	0.022743694
0.86514549	-2.440062591	-0.023225587
0.944099014	-2.384472687	-0.046824408
0.848851699	-2.397561151	-0.115183432
0.79995764	-2.571588906	0.100117926
0.85058544	-2.420946964	0.070779138
0.936967866	-2.385145156	0.046295917
1.046198759	-2.403038033	0.02273502
0.783842452	-2.52304426	0.001798352
0.859643001	-2.448366185	-0.023279413
0.938605234	-2.392011557	-0.046915685
1.04037908	-2.393664701	-0.072812294
0.762737661	-2.458746124	-0.09259699
0.840170018	-2.396383185	-0.115002472
0.845124841	-2.429209651	0.070944578
0.928557785	-2.385213137	0.046241728
1.036443352	-2.400728057	0.022682974
0.776391965	-2.52639289	0.001799033
0.848843739	-2.441547027	-0.023189705
0.932349272	-2.397675386	-0.046970451
0.832486466	-2.398005822	-0.114957232
0.776016444	-2.549680487	0.099077743
0.831482482	-2.413833752	0.070420698
0.920515981	-2.386185084	0.046205601
1.025924971	-2.396542545	0.022613581
0.76892825	-2.529719742	0.001799714
0.837118027	-2.431848153	-0.023073083
0.923191433	-2.39585967	-0.046879174
1.014280178	-2.373346825	-0.072003578
0.748507392	-2.466248982	-0.09270483
0.820904162	-2.388267239	-0.114369099
0.910109222	-2.365107261	-0.139330874
0.754076784	-2.505161349	0.097257417
0.830848881	-2.436241856	0.07099972
0.913904899	-2.390865758	0.046241728
1.014660537	-2.390473872	0.02252684
0.759724133	-2.527278691	0.00179631
0.81997614	-2.406009677	-0.022803957
0.919759666	-2.408955493	-0.047079982
1.003874012	-2.369084256	-0.071780485
0.738639166	-2.46087637	-0.09241726
0.80359663	-2.361457074	-0.112966631
0.90107024	-2.363223422	-0.139056379
0.750378877	-2.520871911	0.097777512
0.814097745	-2.411313526	0.070200116
0.906919646	-2.39459336	0.046259792
1.004994652	-2.388045482	0.022474794
0.751682052	-2.52863891	0.001795629
0.82282009	-2.438833759	-0.023091024
0.91342607	-2.414571299	-0.047134744
0.993890868	-2.3657018	-0.071585273
0.733360722	-2.470795132	-0.09270483
0.80655347	-2.394205919	-0.114414339
0.894168589	-2.366910835	-0.139111276
0.742923538	-2.524120731	0.097814661
0.820320596	-2.454567094	0.071385742
0.899568863	-2.397364554	0.046259792
0.993812977	-2.381889048	0.022388052
0.747304753	-2.542446168	0.001803798
0.811849623	-2.430913443	-0.022992344
0.9067158	-2.419234987	-0.047171255
0.988934384	-2.374276616	-0.071752598
0.713113158	-2.429882496	-0.091087257
0.795412171	-2.385296986	-0.113871445
0.885852836	-2.36683756	-0.138946588
0.737968355	-2.5359833	0.098186155
0.807763245	-2.441887572	0.070944578
0.89673863	-2.41229642	0.046494612
0.984589733	-2.38030655	0.022344682
0.738663969	-2.541845955	0.001801756
0.809095569	-2.447634311	-0.023126908
0.896505203	-2.414506783	-0.047025216
0.983171629	-2.380995219	-0.071864141
0.734059417	-2.52995551	-0.094753755
0.786838014	-2.383931523	-0.113690485
0.882752866	-2.380778657	-0.139605353
0.735157429	-2.555521916	0.098854844
0.891752099	-2.421603882	0.046621056
0.981455531	-2.393493238	0.022440098
0.734451669	-2.556594818	0.001810604
0.808733951	-2.47196398	-0.023333238
0.891854542	-2.424752828	-0.047171255
0.983814528	-2.403427626	-0.072449764
0.78355302	-2.398679011	-0.114278619
0.876477353	-2.386287496	-0.139770056
0.728680371	-2.562571379	0.099040595
0.911728658	-2.499472316	0.048066111
0.973354766	-2.394640381	0.022422749
0.725512042	-2.554988329	0.001807882
0.811926761	-2.507730499	-0.023647219
0.892967958	-2.450963275	-0.047627633
0.72405955	-2.576339402	0.099486385
0.843851009	-2.631981907	0.076238536
0.90609454	-2.507899803	0.048174488
0.96376132	-2.392050189	0.022370703
0.72469542	-2.582234947	0.001825579
0.817043323	-2.550205315	-0.024023995
0.882050483	-2.444286636	-0.047445083
0.770950801	-2.41010207	-0.114595306
0.862834391	-2.394438586	-0.139934743
0.718024034	-2.585288677	0.099746433
0.823681507	-2.596445319	0.075135627
0.887616751	-2.480543422	0.047596468
0.955305538	-2.392209796	0.022344682
0.718640587	-2.591191451	0.001830344
0.803776458	-2.535542079	-0.02386252
0.870172954	-2.434741481	-0.047207767
0.762648753	-2.409598611	-0.114459578
0.853470596	-2.391431988	-0.139605353
0.716965171	-2.612535075	0.100712319
0.950905895	-2.402567641	0.022414075
0.713594762	-2.603992861	0.001837832
0.794198295	-2.532271352	-0.023808693
0.863366355	-2.439284853	-0.047244275
0.71208477	-2.626296211	0.101158117
0.94060926	-2.398026586	0.022344682
0.708738495	-2.617752883	0.001846
0.786721975	-2.535650988	-0.023817666
0.855547957	-2.440978548	-0.047226021
0.838451124	-2.395681449	-0.139550457
0.708677868	-2.645843458	0.101826806
0.776270693	-2.527471087	0.072929808
0.84866811	-2.442330054	0.046711372
0.932160934	-2.398104779	0.022318659
0.700962386	-2.620881038	0.00184668
0.778058813	-2.535184851	-0.023790752
0.847727343	-2.44264735	-0.047207767
0.930368847	-2.397831055	-0.071752598
0.828154797	-2.389751535	-0.13905638
0.704135387	-2.661530402	0.102346902
0.775486127	-2.552795753	0.073591553
0.836291964	-2.43074061	0.046440424
0.924080409	-2.399087177	0.022301311
0.699814321	-2.649123663	0.001865059
0.768825107	-2.53277576	-0.023745898
0.831456685	-2.41970625	-0.046714877
0.921931893	-2.397875121	-0.071668935
0.698762885	-2.649637636	-0.098564034
0.741713802	-2.44745729	-0.115816806
0.812718025	-2.368669784	-0.137683937
0.699755924	-2.67818073	0.102904138
0.761323054	-2.534101354	0.072984957
0.826573989	-2.426669838	0.046313981
0.919924819	-2.410319077	0.022379378
0.695217775	-2.6648049	0.001874588
0.757025835	-2.521714379	-0.023620306
0.814368887	-2.393848957	-0.046167222
0.912435797	-2.395087614	-0.071501618
0.698438619	-2.681748798	-0.099678358
0.731907272	-2.442065834	-0.115454879
0.814760599	-2.398569695	-0.139275963
0.695530485	-2.695797062	0.103498531
0.754683626	-2.54025796	0.073095248
0.827111981	-2.452879802	0.04676556
0.910757278	-2.408453342	0.022336008
0.693026271	-2.690166345	0.001890924
0.749854909	-2.525942226	-0.023638248
0.833825753	-2.475929858	-0.047700656
0.907554437	-2.404422148	-0.071696823
0.693443552	-2.696461061	-0.100145658
0.727250277	-2.453877867	-0.115907293
0.804533829	-2.392540308	-0.138781885
0.689476782	-2.706633661	0.103832882
0.744632771	-2.534888619	0.072874666
0.820532443	-2.458251173	0.046819752
0.913888581	-2.43932809	0.022596232
0.68846715	-2.706817104	0.001901135
0.744354926	-2.535906586	-0.023710014
0.832233566	-2.496498198	-0.048047503
0.685069052	-2.724242238	0.104427275
0.738525157	-2.542920949	0.073040099
0.82459194	-2.495883348	0.047488088
0.920666342	-2.480557008	0.022951875
0.681133598	-2.712795947	0.001903857
0.740751722	-2.552583545	-0.023844577
0.788542529	-2.389849153	-0.045948161
0.680800488	-2.742819209	0.105058816
0.733754395	-2.555743509	0.073343404
0.819416682	-2.506004074	0.047632592
0.909601048	-2.473984564	0.022865131
0.677618549	-2.734285763	0.001917471
0.734019963	-2.558688712	-0.023880461
0.779965383	-2.388455147	-0.045875141
0.800122302	-2.453954167	-0.14191107
0.91637859	-2.516226312	0.023229448
0.675641038	-2.762578795	0.001935849
0.813218088	-2.516420057	-0.048284819
0.673114456	-2.784827169	0.106507641
0.724537569	-2.583297189	0.07400515
0.885242639	-2.454121918	0.02263093
0.670681131	-2.779220012	0.001946059
0.721544371	-2.574698978	-0.023988111
0.806407605	-2.521760007	-0.048339584
0.875306282	-2.431227455	-0.07208724
0.770472705	-2.413160358	-0.139275963
0.671289733	-2.815068589	0.10758498
0.719011639	-2.594177611	0.074253299
0.888811077	-2.487901507	0.022917177
0.666320283	-2.798775123	0.001958312
0.71817887	-2.593283232	-0.024140617
0.798063928	-2.522315762	-0.048303073
0.769682673	-2.436459249	-0.140483717
0.664709425	-2.825869776	0.107919325
0.715009999	-2.610833177	0.074666888
0.878172389	-2.482132359	0.02283911
0.661617152	-2.817356	0.001969883
0.714178296	-2.609941711	-0.02427518
0.794503413	-2.53811091	-0.048558646
0.858375044	-2.430897002	-0.071919915
0.763097649	-2.441668281	-0.140648419
0.66326319	-2.859046489	0.10910811
0.709607485	-2.622663796	0.074942619
0.866585621	-2.473490169	0.02273502
0.657257431	-2.837882554	0.001982816
0.707994484	-2.618877742	-0.024337975
0.791740709	-2.556772959	-0.048868982
0.851902955	-2.436349958	-0.072003578
0.755603119	-2.443997848	-0.140648419
0.669196265	-2.925361422	0.111559976
0.705945856	-2.641245646	0.075411357
0.779600747	-2.541691707	0.048029983
0.861614844	-2.483695106	0.022804413
0.659902466	-2.889605647	0.002017531
0.704600594	-2.638427386	-0.024499452
0.79062792	-2.581177714	-0.049288852
0.84442431	-2.438952046	-0.072003578
0.641387836	-2.81396322	-0.103812156
0.698851665	-2.621672135	-0.122874391
0.745181525	-2.436756255	-0.140099446
0.665274862	-2.94982168	0.112414416
0.702687218	-2.661762673	0.075935238
0.772670074	-2.546941902	0.048084172
0.849118423	-2.472140677	0.0226743
0.65762358	-2.920884055	0.002037951
0.697777838	-2.645411111	-0.024544306
0.771109572	-2.545315655	-0.048558646
0.833048041	-2.430184094	-0.071668935
0.656633243	-2.9221972	-0.107730275
0.688516079	-2.615109236	-0.122467231
0.735389588	-2.431384974	-0.139660249
0.663595085	-2.985015726	0.113677499
0.696535198	-2.671644258	0.07615582
0.757094814	-2.523443504	0.047596468
0.835091343	-2.455799659	0.022500817
0.659708658	-2.972676421	0.002072666
0.694195784	-2.664957286	-0.024705782
0.756984064	-2.526598435	-0.048157034
0.822375985	-2.423262597	-0.071390068
0.646584473	-2.919319247	-0.107550544
0.690796417	-2.656849396	-0.124322099
0.731932661	-2.447022341	-0.140428821
0.665555133	-3.037797619	0.11560927
0.690329173	-2.681513141	0.076376401
0.749349446	-2.525754317	0.047596468
0.827553156	-2.458350122	0.022500817
0.655713239	-2.998132302	0.002089002
0.692991302	-2.694190819	-0.024956966
0.752353151	-2.539454193	-0.048357838
0.821622708	-2.445672931	-0.07197569
0.64103485	-2.936911144	-0.108125677
0.669476113	-2.607673573	-0.121924337
0.718757844	-2.43010667	-0.139330874
0.79766152	-2.392981747	0.114013252
0.661503995	-3.064245412	0.116538015
0.688747749	-2.709776431	0.077120864
0.744129987	-2.536676016	0.047759036
0.815265353	-2.44664735	0.022370703
0.654727735	-3.038254691	0.002115548
0.689644918	-2.715688083	-0.025136383
0.745682963	-2.545588378	-0.048430861
0.821055019	-2.469050196	-0.072589201
0.64483845	-2.998461892	-0.11031839
0.688226156	-2.715265769	-0.126855594
0.711859553	-2.434217057	-0.139440666
0.667898276	-3.140546717	0.119361375
0.683593608	-2.724481033	0.077479311
0.738850548	-2.547589532	0.047921604
0.815272223	-2.471928456	0.022578884
0.652879156	-3.075464269	0.002140053
0.685200432	-2.733310267	-0.025279917
0.737035315	-2.544983109	-0.048376096
0.803788223	-2.442122956	-0.07172471
0.638950096	-3.016068707	-0.110893523
0.667526554	-2.667940185	-0.124548312
0.706052006	-2.442144685	-0.139770055
0.792265994	-2.426320226	0.115367865
0.667889164	-3.188551024	0.121107397
0.681719797	-2.752763749	0.078223773
0.730204496	-2.546960891	0.047867415
0.806443445	-2.470615549	0.022544188
0.644463931	-3.082346955	0.002143456
0.678012446	-2.740253146	-0.025324771
0.733351632	-2.561650477	-0.04864992
0.796601722	-2.445527717	-0.071752598
0.635817376	-3.047363321	-0.111971905
0.671313184	-2.718467722	-0.126810354
0.718311257	-2.513423391	-0.143722694
0.665774864	-3.227775757	0.122519087
0.672559241	-2.751929059	0.078141049
0.724840486	-2.557846841	0.048029983
0.777651248	-2.407421249	0.02194567
0.648515124	-3.149933108	0.002189062
0.672685775	-2.754948621	-0.025441393
0.727666994	-2.571584831	-0.048795962
0.788788505	-2.447008827	-0.07172471
0.628074111	-3.057131071	-0.112259475
0.671248141	-2.754484566	-0.128393796
0.711139663	-2.517537124	-0.1438325
0.665215879	-3.275831464	0.124265116
0.668097001	-2.770499674	0.078609788
0.716989735	-2.560058574	0.048029983
0.797662335	-2.495519663	0.022726346
0.655335953	-3.233253886	0.002245558
0.670554367	-2.783247487	-0.025683606
0.720851148	-2.577656731	-0.048868982
0.795250553	-2.493224805	-0.073007499
0.639691434	-3.162872742	-0.116069754
0.660926007	-2.748760457	-0.128031861
0.702875658	-2.517783397	-0.143722693
0.671810982	-3.361150517	0.127422821
0.662601722	-2.785178524	0.078968235
0.717132946	-2.591154647	0.048571879
0.806284954	-2.549439734	0.023194751
0.652065104	-3.268592163	0.002268701
0.668717977	-2.813504426	-0.025943762
0.717467062	-2.596239336	-0.049179321
0.779775898	-2.470867937	-0.072282446
0.644032259	-3.235389306	-0.11865787
0.657562155	-2.772159355	-0.129027169
0.705768952	-2.558429624	-0.145918617
0.659953121	-3.355351664	0.127125618
0.662275149	-2.822232901	0.079960854
0.711817345	-2.602986905	0.048752511
0.785619707	-2.510864757	0.022821762
0.650124551	-3.311790815	0.00229729
0.665104501	-2.836961133	-0.026141122
0.712658916	-2.610002479	-0.049398383
0.773681293	-2.478019576	-0.072421876
0.637945054	-3.256964355	-0.119376791
0.655881563	-2.803344946	-0.130384397
0.664653822	-3.434868231	0.130060431
0.665108123	-2.873919207	0.081367061
0.705132039	-2.609984443	0.048842827
0.780278162	-2.520905152	0.022891154
0.64489111	-3.339297904	0.002314987
0.657749248	-2.844833793	-0.026194947
0.708293772	-2.625691259	-0.049653953
0.769025016	-2.489932587	-0.072700744
0.633244223	-3.286382616	-0.120383282
0.65648624	-2.845253593	-0.132239264
0.663080807	-3.484012371	0.131843609
0.663626993	-2.908106965	0.082276956
0.702019807	-2.630489994	0.049186027
0.7710768	-2.518506452	0.022847785
0.63128438	-3.323577038	0.002302735
0.660798426	-2.898510421	-0.026670402
0.704868839	-2.645242115	-0.049982546
