x	y	z
-3.31294297	13.66149129	2.076575974
-3.848524276	13.67029319	1.957764649
-3.312196263	13.65841155	1.554586689
-1.295190777	5.429731877	1.706183943
-2.370280346	7.403224442	2.20097327
-1.932764198	8.090694376	2.194696368
-2.951501842	9.242464675	2.354941009
-4.393909174	12.20693465	2.5140691
-3.801656668	13.64686268	2.486209031
-4.386914671	12.21626506	2.024501646
-3.265029509	13.64657602	2.072776299
-3.80338004	13.67058327	1.956125879
-3.267039343	13.65497611	1.553047578
-1.279183632	5.436472556	1.707060847
-1.492326265	6.332898838	1.716623488
-2.912592336	9.218117402	2.346449729
-4.364350021	12.2425508	2.518634817
-3.76238488	13.66795811	2.487937566
-4.345773137	12.21942606	2.02280649
-3.22632839	13.6700084	2.074822169
-3.750129711	13.64111433	1.95025363
-3.220108199	13.64365324	1.550628822
-1.271794555	5.480428829	1.719629916
-1.487774433	6.401490603	1.733970824
-3.264340531	9.226464756	2.275684186
-2.87926888	9.222790097	1.967116941
-4.341477067	12.2975412	2.527195714
-4.328286053	12.28955062	2.032207096
-3.180112874	13.66153506	2.072045782
-3.708001979	13.65159902	1.950117135
-1.288253126	5.62973262	1.765229496
-2.857985804	9.2423142	2.348100779
-2.855875564	9.247496728	1.970508447
-4.331914058	12.39142851	2.543746968
-4.309432818	12.35688222	2.041145171
-2.791145458	12.15938022	1.842906336
-3.661737812	13.64664602	1.947795535
-1.315803471	5.832361949	1.827490482
-1.52378549	5.733123579	1.743232476
-2.825922282	9.238957414	2.345034475
-2.837224328	9.288078589	1.977291694
-4.255699408	12.32428247	2.033593978
-2.752517531	12.16209716	1.842029434
-3.633811735	13.71048195	1.955306436
-9.669128237	28.09343216	2.429623447
-1.328628423	5.97453203	1.870751649
-1.507163777	5.741483739	1.744360315
-2.806568783	9.27734903	2.352582332
-3.105560604	9.041480379	2.222914047
-2.811266198	9.30518136	1.979087224
-2.727039171	12.22358849	1.850066881
-1.360247493	6.206513797	1.942073975
-2.775307629	9.276606026	2.350223657
-3.105716055	9.13303788	2.243070908
-2.761386026	9.242406649	1.963924874
-4.070912359	13.63843131	2.357794092
-2.731800937	12.42416792	1.879147748
-3.524330299	13.63469145	1.941377068
-1.270344663	5.882551011	1.83947495
-2.493337655	7.379407109	2.125345455
-4.012574079	13.59503011	2.348151729
-2.659317051	12.27393008	1.855181674
-3.482483068	13.64543944	1.941377068
-2.920651571	13.48010552	1.52567188
-1.173090243	5.514134495	1.723137647
-2.46670822	7.375128125	2.121923434
-3.991850064	13.67925284	2.360572384
-2.904774174	13.60843194	2.055532435
-3.434794454	13.63300496	1.938099528
-2.881563942	13.4996951	1.526881258
-1.218535942	5.81535507	1.816090615
-3.928260686	13.61655194	2.347661541
-2.740885724	13.03642101	1.967851619
-3.388888597	13.62713597	1.935778046
-3.930533672	13.65126487	1.820315259
-9.173847707	28.04519996	2.412996613
-1.196437337	5.79846078	1.809659869
-1.310263705	6.33949053	1.707949819
-3.013051444	9.230648032	2.257792301
-3.89783047	13.66838581	2.354525611
-2.713513653	13.10579748	1.977058034
-3.348717999	13.64420326	1.936733985
-3.894335676	13.68329333	1.822984237
-1.181688378	5.817099332	1.814336808
-2.019987317	7.129058383	2.097994088
-1.330139893	6.536769757	1.759991829
-1.576740927	6.490771088	1.689934784
-3.845707649	13.64419695	2.348315284
-2.754900591	13.51439345	2.03741167
-3.302878615	13.63804516	1.934412385
-3.830581888	13.61783569	1.812689204
-2.758980823	13.53440991	1.527870696
-1.166836331	5.835701537	1.819013628
-1.333436012	6.657434034	1.791370216
-1.558627797	6.503119997	1.691896969
-2.937057778	9.210197698	1.873328587
-3.80488863	13.65973283	2.348969028
-2.735223569	13.63141441	2.053778867
-3.263784662	13.65967564	1.936051154
-3.797285971	13.66010454	1.816756387
-2.72194212	13.565224	1.530399363
-1.172005394	5.956545629	1.855551752
-1.312631137	6.65959608	1.79086
-2.935016248	9.280275943	2.263227766
-2.698564738	13.66594582	2.057724456
-3.214362502	13.63780562	1.931544566
-3.7451134	13.63438825	1.811799545
-2.691672395	13.63104218	1.536886016
-1.160813482	5.996730226	1.866951618
-1.214698717	6.263966171	1.683459345
-2.657191455	13.67707447	2.058162908
-3.17497451	13.65821716	1.933046723
-3.704305182	13.6496422	1.812307972
-2.642257932	13.60020875	1.532488268
-1.153142193	6.056630027	1.884489925
-1.421934701	6.183335236	1.864466535
-1.425729972	7.474846335	2.007702055
-2.863042094	9.249726222	2.251450841
-2.843765061	9.209636412	1.86781158
-2.615032608	13.68419048	2.058016758
-2.775372601	12.10750407	1.712361241
-2.605184758	13.63265776	1.535236876
-1.078241171	5.759341499	1.790952357
-1.35034414	5.955619204	1.794545517
-2.845087392	9.255609045	2.642072425
-1.488348539	7.935348754	2.130153839
-2.834935842	9.259398111	2.251677104
-2.823526529	9.244607577	1.873138329
-2.5739512	13.69700988	2.058747509
-2.737122255	12.11112986	1.711678409
-2.558758926	13.61616558	1.532488268
-1.056758556	5.741930531	1.784521611
-1.311138274	5.866101437	1.766351569
-2.82229094	9.282754335	2.647336947
-1.2486923	6.772192904	1.816881005
-2.816113054	9.299747207	2.259377547
-2.740406693	10.44495028	2.198542466
-2.798841658	9.265443755	1.875611563
-2.529580825	13.69219531	2.056847789
-3.002819906	13.47897095	1.903685714
-2.51570912	13.61710985	1.531718653
-1.035733356	5.726324765	1.778675588
-1.290658335	5.858852755	1.76296829
-2.79379859	9.291369129	2.647336947
-1.136359456	6.27078919	1.681418481
-2.764655454	9.231830788	2.240806168
-2.759162328	9.236360223	1.868001837
-4.069292551	13.65942122	2.222991312
-2.486855077	13.69599856	2.056263188
-2.670831093	12.16446515	1.716867828
-2.471967203	13.61400621	1.530509275
-1.014813896	5.710644033	1.772829447
-1.272270453	5.860909443	1.762404428
-1.117624148	6.277102045	1.682183806
-3.479172198	13.61498581	2.327886626
-4.024295478	13.6614159	2.221296156
-2.443608397	13.69674666	2.055240136
-2.931997964	13.55233136	1.911469841
-2.429664631	13.61859055	1.530179541
-0.994000411	5.694888815	1.766983421
-1.268128489	5.929521999	1.781858193
-1.183478086	6.767206641	1.812544169
-3.97739097	13.65662271	2.218522157
-2.398672768	13.68761416	2.052755814
-2.897220678	13.59323506	1.915976429
-2.385813297	13.61423177	1.528860133
-0.964892991	5.630045494	1.745937379
-1.304318886	6.191562014	1.859391675
-1.797548809	7.176465994	2.094724891
-1.185130665	6.90136175	1.84749395
-2.07630811	8.315848442	2.080386517
-3.93629449	13.67160912	2.218984451
-2.354823134	13.6841841	2.051148395
-2.740509987	13.05429374	1.838818337
-3.383789468	13.61919068	1.798199911
-3.916889801	13.63105243	1.681639555
-2.343528382	13.61854899	1.528530399
-0.991879018	5.896097021	1.827490482
-1.521722108	7.335062112	2.201384295
-1.163630646	6.903058563	1.846983736
-2.050785535	8.322179029	2.080386516
-2.312170363	13.68744258	2.050563794
-2.701249341	13.06652033	1.839364672
-3.346951115	13.64973811	1.800869007
-3.879121684	13.65733413	1.68340576
-2.301239649	13.62273504	1.528200548
-0.949487486	5.751917336	1.7818909
-1.328898781	6.505895844	1.951303945
-1.130454304	6.834095655	1.827595535
-2.025243974	8.328431794	2.080386517
-2.269358084	13.68959236	2.049833278
-2.766061789	13.59020287	1.911879445
-3.310190108	13.68115188	1.80366518
-3.838276917	13.67299516	1.683876755
-2.253095351	13.5914887	1.523912709
-0.935199346	5.775571834	1.788321644
-1.265434019	6.293602735	1.886457789
-1.731422283	7.19270639	2.094724892
-1.049547977	6.468167541	1.728868666
-2.226554375	13.69160714	2.049102524
-2.725522351	13.60445303	1.912698889
-3.266128811	13.68255966	1.802521366
-3.79418694	13.67705133	1.682934764
-2.218406436	13.64150347	1.528750222
-0.925423794	5.828472088	1.803813845
-1.226750751	6.199572293	1.857136117
-2.694423891	13.64294045	2.440574523
-2.183604025	13.69251227	2.048225622
-2.693160709	13.66037537	1.919390464
-3.215497027	13.65582777	1.797691484
-3.752471031	13.6895851	1.683052542
-2.178109665	13.65806091	1.529849689
-0.904008381	5.808604986	1.796798498
-1.207358194	6.20142321	1.856572256
-2.656312605	13.6704803	2.44403183
-2.140821743	13.69425992	2.047495106
-2.653879474	13.68218805	1.921302342
-3.70033064	13.66365091	1.678460481
-0.852593086	5.591074004	1.728691373
-1.1931993	6.23054053	1.864184605
-2.775602158	12.07692579	2.522937169
-2.615099281	13.68243562	2.444723245
-2.779138644	12.10683232	2.05773811
-2.61040544	13.68248149	1.92020979
-2.773623195	12.11188384	1.592172045
-0.84052141	5.627713345	1.739214451
-1.166975967	6.196457752	1.852907049
-0.925862699	6.185076362	1.650040212
-2.741352848	12.0978082	2.525530687
-2.741764533	12.11433889	2.057574556
-2.568598689	13.69139943	1.920346404
-2.73710674	12.12323912	1.592553396
-0.854521602	5.844121153	1.805275353
-1.11372373	6.015102764	1.797646867
-1.3386187	5.961367915	1.729939338
-2.062918225	7.806849616	2.203262553
-0.909406557	6.205108418	1.654632155
-2.757107718	10.48130687	2.520057507
-3.024882283	13.55835213	2.301247642
-2.525503784	13.69337027	1.919527078
-3.006305676	13.50836362	1.773288507
-3.5721602	13.68848135	1.677400711
-0.808548272	5.650751701	1.744768175
-1.035485349	5.690004164	1.6995319
-1.323649993	5.980478089	1.734298228
-2.038470319	7.811274912	2.202736124
-0.892149882	6.220311465	1.657948556
-2.672677526	12.15502233	2.061660334
-2.482244621	13.6942305	1.91857102
-2.664793581	12.14949382	1.593824405
-0.790678008	5.649417355	1.74359897
-1.036431983	5.796099294	1.730263338
-1.305500954	5.985450891	1.734570622
-2.016662766	7.825900118	2.205105055
-2.911341304	13.43685071	2.277550267
-2.439524775	13.69788065	1.918024803
-2.930068276	13.55757981	1.777355689
-3.478063361	13.67068374	1.672573211
-0.772823489	5.648026647	1.742429766
-1.00271041	5.708535021	1.703197108
-1.28207779	5.965910347	1.727759836
-2.396921965	13.67534199	2.436598894
-1.879227451	13.66470335	2.037557822
-2.396464473	13.69944555	1.917205477
-2.802740109	13.16389505	1.724609512
-1.874156986	13.62783412	1.521603983
-0.75625238	5.65605815	1.744183571
-0.982745826	5.697402403	1.698968039
-1.262971596	5.9660502	1.726670143
-2.353785866	13.67583567	2.435388918
-1.837691135	13.67334525	2.037996272
-2.351069816	13.68720642	1.914474154
-2.73485785	13.04137751	1.707451124
-3.396027596	13.69947855	1.673515084
-1.831544195	13.62760942	1.520944279
-0.740506082	5.67067945	1.747983606
-0.959174911	5.6644439	1.688254342
-1.234842976	5.922801107	1.713048576
-1.098678823	6.488289608	1.664916809
-2.309356585	13.66842572	2.43279588
-2.706938303	13.07375257	2.211688326
-1.795604497	13.67793827	2.037850122
-2.305937655	13.67579456	1.911879445
-2.721915387	13.18084425	1.724609512
-1.787268622	13.61443998	1.518855374
-0.72383072	5.678616355	1.749737412
-0.938961096	5.650323706	1.683179365
-1.213570476	5.911481407	1.708689688
-1.956926651	7.999056289	2.246959195
-0.817468403	6.396313505	1.701317014
-2.267733957	13.67738982	2.433141824
-2.779140336	13.63299977	2.304842995
-1.75300401	13.67847671	2.03711937
-2.262999659	13.67694111	1.911060119
-2.762684862	13.58862673	1.776847261
-3.303283653	13.68434112	1.66915858
-1.744859929	13.6149295	1.5183057
-0.74558479	5.995883631	1.846782597
-0.931193014	5.71188749	1.700659619
-1.249177055	6.181133134	1.785515306
-1.921284135	7.959070696	2.234060751
-0.791500301	6.347938909	1.68779618
-2.221808343	13.65997761	2.428820248
-2.739630909	13.65306949	2.306804226
-1.709680577	13.67299217	2.035511951
-2.21960031	13.67501916	1.909831071
-2.721955519	13.60190222	1.777482767
-1.702341743	13.6143008	1.517645996
-0.756881332	6.243081504	1.922197256
-0.905485404	5.663557857	1.685434923
-1.277321283	6.421802599	1.853895545
-1.893504507	7.950850457	2.230112301
-0.77680569	6.389690754	1.698255719
-2.178803816	13.65992174	2.427610275
-2.698113081	13.66334633	2.307131098
-1.667245427	13.67424577	2.03492735
-2.177635512	13.68176463	1.909831072
-2.678679659	13.60240366	1.776465912
-3.206538697	13.65021577	1.662564758
-1.658039525	13.59874086	1.515337269
-0.778334967	6.589173407	2.02801171
-0.885134378	5.647352174	1.679796087
-1.228044347	6.274609285	1.810306547
-1.507283961	6.416388334	1.798409687
-0.777672767	6.564879678	1.744175139
-2.655805636	13.66962198	2.306804225
-1.625285614	13.67929639	2.03492735
-2.633916815	13.59497668	1.774432438
-1.617601289	13.61462019	1.516546647
-0.757678971	6.587730087	2.026842505
-0.872465289	5.680386989	1.688818202
-1.218065731	6.326533533	1.824200628
-1.454930802	6.280006931	1.758924711
-0.732931125	6.353993985	1.687541071
-2.612188591	13.66898485	2.305333421
-1.582059724	13.67340783	2.03331993
-2.609834666	13.69555754	1.786506791
-1.571140765	13.57903778	1.512038987
-0.72874339	6.512091293	2.002873568
-0.846326651	5.625162968	1.671619878
-1.229082153	6.490954538	1.870513914
-1.440598797	6.306072401	1.764979111
-0.694991424	6.191902487	1.643917622
-2.570240495	13.67693407	2.30533342
-2.735581684	12.11685359	1.937431301
-1.539328117	13.67131629	2.032297114
-2.556843812	13.64500434	1.778880853
-1.532364872	13.60947392	1.514897506
-0.679384606	6.244293709	1.919858846
-0.828086068	5.6210887	1.66964625
-1.08553409	5.830657925	1.679267046
-1.417429871	6.293521588	1.760240899
-2.526654963	13.67602406	2.303862379
-3.017128265	13.55741175	2.166279878
-1.496839496	13.6710572	2.031566361
-2.513172757	13.64302982	1.777609844
-1.489089938	13.60027866	1.513358276
-0.658615872	6.231132326	1.915182026
-0.832470176	5.773641522	1.714192735
-1.383897549	6.233798127	1.74234103
-0.683085485	6.44220028	1.709225359
-1.277019004	7.007773776	1.728938098
-2.483628059	13.67788776	2.302882001
-2.684043499	12.23764298	1.954074825
-1.453739008	13.66476463	2.029958943
-2.465473637	13.618467	1.773415584
-1.446096133	13.59292252	1.512038986
-0.629442787	6.135136135	1.885074528
-0.829359608	5.879721227	1.744924173
-1.041562955	5.791754059	1.666190385
-1.368477462	6.254978096	1.747079239
-0.655892707	6.37212812	1.69009215
-1.270586438	7.095837147	1.749694704
-2.933258738	13.57277231	2.165817585
-1.411199427	13.66325614	2.02908204
-2.426286551	13.64061557	1.775322098
-2.908911826	13.49433131	1.636778595
-1.407858689	13.63091022	1.515777032
-0.606830107	6.098973383	1.873382361
-0.810792614	5.878436189	1.743796452
-1.028810986	5.823346927	1.67436337
-0.632978372	6.340436033	1.681163375
-1.882148483	13.68306864	2.423980351
-2.396590083	13.67537747	2.299940154
-2.795725006	13.13136797	2.094003764
-1.369964854	13.67441192	2.030105094
-1.876192643	13.67335566	1.902593278
-2.381695232	13.63236142	1.773288507
-2.765183176	13.02138681	1.578376891
-1.363060588	13.60549619	1.51247875
-0.574534784	5.95992339	1.830121192
-0.774425177	5.744927454	1.70347904
-1.015875074	5.854916336	1.682536242
-0.616036914	6.36833326	1.688051287
-2.354121336	13.67974963	2.299449966
-2.743461015	13.08282826	2.084911432
-1.327527956	13.67362718	2.029374341
-1.833181278	13.67119343	1.901500727
-2.330468732	13.58485828	1.766170878
-2.72440801	13.02592075	1.577905895
-1.321601201	13.61258191	1.512808602
-0.552071676	5.916904977	1.816382915
-0.750784048	5.701617626	1.689945924
-1.064154678	6.246894913	1.794233081
-0.59117759	6.313394264	1.672999923
-2.310005113	13.67426122	2.297325417
-2.704509414	13.0969902	2.085836257
-1.285108718	13.67271127	2.02864359
-1.791101479	13.6757703	1.901364113
-2.296686121	13.63889328	1.772271651
-1.281041383	13.62943657	1.514237802
-0.53383037	5.917618643	1.816090616
-0.73279886	5.700087706	1.688818203
-1.019438984	6.097340883	1.750371691
-0.570759294	6.303622167	1.669938626
-2.265460684	13.66571193	2.294710444
-2.776124469	13.65518941	2.173368777
-1.242707611	13.67166324	2.027913073
-1.747880076	13.67137448	1.899998569
-2.249010144	13.61064568	1.767696161
-2.75651506	13.59519248	1.644785287
-1.238770925	13.62835305	1.513688127
-0.508783945	5.840152865	1.79182926
-0.715068954	5.700404966	1.688254341
-0.959141191	5.846927596	1.67763245
-0.548216395	6.268740707	1.660244527
-2.222573969	13.66675512	2.293729828
-2.737319817	13.67914449	2.175834503
-1.201190329	13.68033931	2.02864359
-1.703353748	13.65602996	1.897130752
-2.20914713	13.62923059	1.769221324
-2.708767955	13.57339673	1.6411351
-1.194867427	13.60832715	1.511049549
-0.490143528	5.83310965	1.789198549
-0.82129554	6.713950079	1.987674222
-0.527030813	6.247269269	1.654121938
-0.811040363	6.63011579	1.689934784
-2.181256032	13.67740605	2.294383571
-2.695530911	13.68844679	2.175988757
-1.159297539	13.68494553	2.02878974
-1.661330034	13.66020759	1.896994138
-2.164208886	13.61635231	1.766679306
-2.67591513	13.62646674	1.646551373
-1.152776391	13.6079674	1.510609668
-0.470856752	5.817428445	1.783937011
-0.792402672	6.646891982	1.967092501
-0.501125971	6.165975677	1.63218266
-0.789433258	6.621983724	1.687236721
-2.651079618	13.68404234	2.173985327
-1.116824319	13.68252171	2.027913073
-1.619180127	13.66327272	1.896721029
-2.628634441	13.60633695	1.643136861
-1.111426596	13.6163924	1.51115946
-0.453823407	5.82933314	1.787152439
-0.742131031	6.391973789	1.890968905
-0.902052671	5.834588337	1.671638965
-0.766206619	6.599336663	1.680859619
-2.607605393	13.68434659	2.172752465
-1.074067137	13.67602136	2.026451568
-1.576232159	13.65931924	1.895491982
-2.586692923	13.61336155	1.643019082
-1.067467901	13.59199332	1.508081
-0.434938907	5.817346776	1.783060106
-0.723917665	6.406613941	1.894634112
-0.995675253	6.57365376	1.882500886
-1.143941333	6.020259439	1.672057734
-0.484426727	6.45048034	1.706674281
-0.735615686	6.510140707	1.657558614
-2.5656101	13.69228257	2.172752465
-1.030541641	13.65853703	2.023382882
-1.532549784	13.64833952	1.893306994
-2.549475216	13.64563796	1.645962718
-1.025538854	13.59223096	1.507751266
-0.452918163	6.318485749	1.936227949
-0.671142102	6.107438414	1.805541144
-0.994137729	6.702309836	1.918461798
-1.121745259	6.003826009	1.66652988
-0.478177817	6.639996668	1.756420317
-0.721040078	6.561513413	1.670067603
-2.521442831	13.68842868	2.170903054
-0.985919703	13.62413973	2.017829637
-1.490562602	13.65199246	1.893170381
-2.508136941	13.65632551	1.646315935
-0.983690201	13.59333116	1.507531326
-0.418478032	6.100406385	1.868997842
-0.63987109	5.992125966	1.770862568
-0.965275551	6.648197003	1.90211594
-1.288920902	7.017776073	1.946873293
-0.456673943	6.625034185	1.752083485
-0.697818073	6.534775355	1.662709409
-2.478379453	13.69026579	2.169978465
-0.941245057	13.58565065	2.011692027
-1.449089841	13.66044186	1.893716599
-2.462171449	13.64147887	1.643607739
-0.940814004	13.57942861	1.505662362
-0.44508811	6.793514108	2.080918938
-0.618911884	5.969248318	1.763532148
-0.943386	6.640648186	1.899119254
-1.085742139	6.015342875	1.667846069
-0.434567559	6.599389051	1.744940464
-0.662869355	6.39320721	1.626163656
-1.922671843	13.66932284	2.28670244
-2.434636358	13.68807786	2.168437329
-0.899495127	13.58748718	2.011545876
-1.406970397	13.66285209	1.89344349
-1.913622684	13.65682847	1.767060656
-2.418574421	13.63919063	1.642430308
-0.379250965	6.074225317	1.860228688
-0.599635398	5.961573108	1.760712731
-1.199850228	6.766226467	1.875010595
-0.413834287	6.592970877	1.742899599
-0.642281923	6.385564911	1.623710925
-1.879785011	13.66831616	2.285558507
-2.39178042	13.6906158	2.167666996
-0.858989121	13.60894218	2.014322499
-1.364948253	13.66611915	1.893306995
-1.869022654	13.64298046	1.764518637
-2.372118281	13.6201315	1.639251234
-1.356761835	13.62744528	1.378271436
-0.35965042	6.059131465	1.855259451
-0.581528907	5.965294226	1.761276706
-0.821695436	6.050422218	1.728849645
-1.102444678	6.329829314	1.753133641
-0.394008671	6.600965991	1.744685355
-0.620054546	6.360488423	1.616843159
-1.836396736	13.66326346	2.283760595
-2.346927015	13.68133433	2.165047016
-0.813853948	13.55522615	2.005992868
-1.322633111	13.6662977	1.892760659
-1.826499681	13.64373459	1.763883132
-2.33383609	13.64790107	1.641723874
-1.313418489	13.61569713	1.376669263
-0.339662436	6.03538103	1.847659501
-0.56638043	6.000482219	1.771144498
-0.809330434	6.099652052	1.742198705
-0.373154181	6.591524533	1.741879168
-1.794469794	13.66883321	2.283760595
-2.303793798	13.6816501	2.163968409
-0.77293839	13.56951135	2.007746437
-1.280144893	13.66437383	1.891941334
-1.783732513	13.64238917	1.762993473
-2.286693783	13.62365767	1.637956025
-1.27191742	13.62263476	1.37696967
-0.309865629	5.824390388	1.782767805
-0.545613387	5.976394028	1.763532149
-0.755131375	5.828250777	1.66401088
-1.752024353	13.67035981	2.283107087
-2.261325044	13.68572854	2.163506114
-0.729973347	13.54712345	2.004092913
-1.238395903	13.6702095	1.892214441
-1.741116446	13.6418939	1.762230891
-2.243756697	13.62375057	1.637131813
-1.228418175	13.607645	1.37506709
-0.357250054	7.127150218	2.181179436
-0.728435743	5.760856091	1.644123432
-0.318376843	6.309779209	1.666877333
-1.709831216	13.67371218	2.282780214
-2.219801373	13.69552754	2.163968408
-0.688357768	13.54831082	2.003946762
-1.196104996	13.66999741	1.891668225
-1.697907372	13.6363446	1.760832805
-2.204641213	13.64723561	1.639133456
-1.186751067	13.61234048	1.375167226
-0.272369128	5.788926383	1.771367938
-0.508363096	5.972937575	1.761558638
-0.716764705	5.81176605	1.658017397
-1.00914545	6.246690614	1.726546991
-0.303593514	6.407308813	1.69238812
-0.821309151	6.700839894	1.638599274
-1.666559291	13.66812141	2.280982302
-2.17777367	13.70227425	2.163968409
-0.647590673	13.56715781	2.006431084
-1.154327048	13.67557646	1.891941333
-1.656063654	13.64148928	1.760832804
-2.159033098	13.63039592	1.6363076
-1.146150645	13.62979847	1.376569127
-0.266119637	6.051514902	1.851459533
-0.490271287	5.977337776	1.762404429
-0.703065369	5.848328375	1.667824982
-1.000692378	6.31740982	1.745236623
-0.798787868	6.686924036	1.63458943
-1.624967549	13.67610948	2.281472728
-0.605699381	13.56315045	2.005554417
-1.111803563	13.67214278	1.890985395
-1.612573229	13.63271552	1.759053368
-1.103044323	13.61738306	1.374966955
-0.288238142	7.047005866	2.155748994
-0.470118848	5.955858514	1.755637869
-0.761666865	6.504118505	1.854168053
-0.984118382	6.338562672	1.750238046
-0.26542854	6.437067929	1.699786367
-0.778044338	6.687412883	1.63411772
-1.583455724	13.68495058	2.282126472
-0.564784119	13.58174846	2.008038739
-1.069621011	13.67252614	1.890575672
-1.569833034	13.62971574	1.758036631
-1.061184329	13.61971095	1.374866819
-0.217559377	5.751051017	1.759091168
-0.48144969	6.347600054	1.870669231
-0.709124277	6.220585603	1.772711036
-0.96684353	6.355858779	1.754186499
-0.243281968	6.375048096	1.683204236
-0.752931589	6.649212526	1.62421107
-1.540911468	13.68484186	2.281309174
-0.524064954	13.60812986	2.011692027
-1.025219607	13.64314482	1.886069085
-1.529335922	13.64629629	1.759561795
-1.01635053	13.58222244	1.370761251
-0.211009659	6.070911249	1.856720955
-0.475480833	6.534686344	1.925365552
-0.688021623	6.204562082	1.76753485
-1.497845946	13.67969818	2.279675051
-0.479335254	13.52563928	1.999270657
-0.981720543	13.6235	1.882928158
-1.485098655	13.62923069	1.756765622
-0.971970486	13.54756487	1.36695609
-0.192080505	6.061971675	1.853797943
-0.453496425	6.508358362	1.917189229
-0.667023904	6.188467432	1.762358662
-0.993821445	6.814167289	1.878959048
-1.454095838	13.6675521	2.27689676
-0.438541001	13.54879814	2.002485494
-0.936170286	13.57209254	1.875417257
-1.446097093	13.66035565	1.7601973
-0.931697541	13.56934333	1.368858671
-0.173509082	6.063488582	1.854090246
-0.431550557	6.480042367	1.90844916
-0.730579393	6.979008558	1.986842152
-1.410941208	13.66017291	2.27493553
-1.915182158	13.66860763	2.152718627
-0.395928882	13.51448236	1.997224787
-0.894722713	13.57786593	1.875826861
-1.403167016	13.6548609	1.758926291
-1.895558374	13.58029497	1.625828269
-0.154881326	6.063036072	1.853797943
-0.410634151	6.465058183	1.903656113
-0.637013246	6.270938155	1.784698006
-1.368730738	13.66149167	2.274445103
-1.873238391	13.67441891	2.152718627
-0.354491133	13.51662216	1.997370702
-0.851509563	13.55582966	1.872412825
-1.357726774	13.62356971	1.754350681
-1.85630246	13.60375678	1.62794769
-0.137375379	6.112243209	1.868705542
-0.390392555	6.45958396	1.901682603
-0.612490396	6.219240697	1.769441841
-0.822017557	6.023915374	1.658896076
-1.327383484	13.67151885	2.275425719
-1.829834977	13.66932917	2.151023471
-0.313524865	13.53940374	2.000585774
-0.810802936	13.5732111	1.874461317
-1.314303096	13.61088704	1.752190013
-1.816789125	13.62612134	1.629949333
-0.118251524	6.093512891	1.862859399
-0.367221621	6.402321807	1.884484278
-0.590118037	6.186609017	1.759634374
-0.817940577	6.13446746	1.688641418
-1.28432571	13.66373947	2.273464724
-1.787505227	13.67193981	2.150560942
-0.272084443	13.54524756	2.001316527
-0.768708796	13.56772292	1.873368765
-1.272723957	13.61683008	1.752444167
-1.77510446	13.63261624	1.630067112
-0.099259526	6.075679423	1.85730556
-0.341129661	6.284623326	1.849523768
-0.570781291	6.184557779	1.758544563
-0.923063598	7.088820489	1.950558531
-1.242221266	13.6656508	2.273137853
-1.745927153	13.68029964	2.151023471
-0.230661589	13.55393185	2.002485495
-0.726072929	13.55122216	1.870774055
-1.233084723	13.64437905	1.755494613
-1.732645829	13.63307196	1.629478338
-0.080568382	6.072130486	1.856136355
-0.322975533	6.307678513	1.856008396
-0.551548204	6.183404825	1.757727265
-1.200634911	13.67332848	2.273791596
-1.703215933	13.67970871	2.150098648
-0.189091416	13.55556417	2.002631644
-0.684345095	13.55041836	1.870364452
-1.188200048	13.61351305	1.75104608
-1.68934576	13.62649763	1.628065351
-0.072922167	7.149114973	2.185271654
-0.298825635	6.208974207	1.826686608
-0.533070487	6.190819603	1.759361863
-1.156764629	13.65433804	2.270032689
-1.660167524	13.67604262	2.148711767
-0.147728672	13.57685407	2.005700568
-0.643567607	13.56927595	1.872685935
-1.147177639	13.62599008	1.752190012
-1.647413192	13.63063063	1.62794769
-0.051254641	7.18660105	2.196671638
-0.278695807	6.185900013	1.819638119
-0.518134536	6.241328464	1.773255941
-0.046185279	6.188067484	1.632692875
-1.11559062	13.66667243	2.271503494
-1.61878249	13.6859773	2.149482335
-0.105920211	13.55745875	2.002777795
-0.602022419	13.57316512	1.872959042
-1.104165624	13.61461616	1.750283499
-1.606632472	13.64449633	1.629007342
-0.029237309	7.194374847	2.199010047
-0.259515215	6.181933083	1.818228469
-0.497144117	6.219870121	1.766717552
-0.027502091	6.256830485	1.650805537
-1.073347655	13.66609641	2.27084975
-1.57622162	13.68597131	2.148711766
-0.064387031	13.57058036	2.004677515
-0.558293915	13.52446913	1.865994359
-1.064320041	13.64266185	1.753461022
-1.564311735	13.64541538	1.628536347
-0.007164188	7.193474419	2.198717746
-0.240063195	6.170237022	1.81456326
-0.479017809	6.233837366	1.77025914
-0.008325531	6.271388958	1.654632154
-1.030524847	13.65752045	2.268888521
-1.53367605	13.6858332	2.147941198
-0.022772678	13.5825847	2.006431083
-0.517630875	13.54789615	1.86899879
-1.020681207	13.622124	1.750410576
-1.521450184	13.64126799	1.627476695
0.012356858	5.963631039	1.822813661
-0.21962027	6.128756681	1.802157866
-0.462225975	6.266943348	1.779249426
0.010894664	6.25978188	1.651570859
-0.986625445	13.63306624	2.264312552
-1.490932152	13.68359839	2.146862591
0.018807371	13.51729991	1.996786336
-0.474290032	13.49892925	1.862034106
-0.975756925	13.58166052	1.74481823
-1.481626004	13.66462978	1.629713895
0.030244976	5.884191079	1.798552307
-0.201381977	6.146662041	1.807232842
-0.440012572	6.226101824	1.767262457
-0.688674425	6.3512287	1.743130788
0.029694867	6.175598691	1.629376473
-0.94240845	13.60158199	2.258592651
-1.44832037	13.68221278	2.145937767
0.060414528	13.54784552	2.001316527
-0.434016582	13.5359661	1.866950299
-0.938643217	13.65089006	1.753333945
-1.437304207	13.64639656	1.627005699
0.048454266	5.903196454	1.804398448
-0.18320673	6.170267435	1.813999401
-0.420844198	6.226462293	1.766989945
-0.672924929	6.388810645	1.75287031
0.048450806	6.151306659	1.622998777
-0.89839391	13.56995512	2.252872513
-1.405529204	13.67872856	2.144704904
0.101859303	13.53176835	1.998978356
-0.392199684	13.52733097	1.865584754
-1.395026878	13.64678998	1.626534703
0.066219726	5.872419472	1.795044691
-0.164097026	6.164086642	1.812025772
-0.421684212	6.536901785	1.854712842
-0.646060977	6.319824656	1.733391151
0.066380722	6.065078661	1.600294056
-0.856198297	13.56378606	2.251401708
-1.363360931	13.68100975	2.144396865
0.143185046	13.5135859	1.996347884
-0.350619548	13.5254998	1.865175032
-1.352368937	13.64310022	1.625592712
0.084071141	5.860713988	1.791536959
-0.143106832	6.076317982	1.786087381
-0.39490206	6.428683422	1.823655723
-0.622196173	6.276655984	1.721019136
0.084811686	6.052277798	1.596977654
-0.813871582	13.55453136	2.249440477
-1.320622022	13.67726033	2.143164003
0.185075975	13.54473652	2.001024225
-0.309665445	13.55028136	1.868452573
-1.31022135	13.64421932	1.625239494
0.12411313	7.127367361	2.178841027
-0.124110639	6.059462083	1.781012403
-0.606256656	6.313106645	1.730495559
0.102586728	6.005584238	1.584732476
-0.772788007	13.56582973	2.250911519
-1.277919011	13.67337783	2.141931141
0.226431168	13.532236	1.999270657
-0.26797475	13.54522479	1.867633129
-1.268263439	13.64718613	1.625121716
0.146586108	7.156592942	2.1879026
-0.105720332	6.071325534	1.784395681
-0.580904145	6.250577281	1.712858903
0.120855275	5.997507745	1.582691614
-0.729997134	13.54646313	2.247315929
-1.235341179	13.67034549	2.140852298
0.267417609	13.50477277	1.995324832
-0.22650009	13.55093566	1.86831596
-1.226033028	13.6470568	1.624650838
-0.086542828	6.033248322	1.773118126
-0.565954916	6.299412208	1.725757348
-0.687983105	13.53977226	2.245845125
-1.19184902	13.65635396	2.138078299
0.30948176	13.53158073	1.999416807
-0.185384928	13.5852448	1.872959042
-1.182528154	13.63195619	1.622413637
-0.067859593	6.018135512	1.768607126
-0.543874413	6.269401561	1.717070684
-0.646816784	13.54970246	2.247152612
-1.149283236	13.65206936	2.136845436
0.350430234	13.50881142	1.996201734
-0.143600322	13.57584368	1.871593499
-0.638597383	13.52621629	1.735158701
-1.141942123	13.65036431	1.624179842
-0.049529758	6.034625008	1.773400055
-0.52246601	6.245083797	1.70996331
-0.606124207	13.57133468	2.250421093
-1.106914742	13.64962198	2.135920848
0.392819716	13.54030472	2.001024226
-0.101845406	13.5623527	1.869681621
-1.097346486	13.62014884	1.620176437
-0.031030351	6.037626613	1.774245844
-0.264649206	6.158973165	1.745467899
-0.505085979	6.268774403	1.71601771
-0.564403095	13.57115872	2.250094221
-1.063419356	13.6322672	2.132684555
0.433565908	13.51431668	1.997370701
-0.060055826	13.52198571	1.864082481
-0.557462075	13.5754686	1.74100532
-1.05425121	13.60662026	1.618174794
-0.012514976	6.041531271	1.775373682
-0.48659652	6.279913152	1.718650089
-0.522233159	13.55902507	2.247806355
-1.020852958	13.62561308	2.131143654
0.475268501	13.51984326	1.998393754
-0.018621014	13.55875902	1.869135285
-0.511931946	13.4750239	1.727914113
-1.009702165	13.57215897	1.613700511
0.006013548	6.034825272	1.773400055
-0.226641046	6.154712131	1.743833302
-0.468115092	6.291959249	1.721545566
-0.480562286	13.55859154	2.247479484
-0.978408198	13.61981102	2.129756536
0.51663116	13.51535575	1.997955302
0.022936471	13.53497732	1.865857863
-0.967634804	13.56924948	1.612993958
0.024454012	6.016549221	1.768043147
-0.208828667	6.187111906	1.752823587
-0.465828496	6.532013067	1.786827432
0.025233502	6.208331436	1.570731812
-0.439058594	13.56296019	2.247969673
-0.934856501	13.59711984	2.125749911
0.558297378	13.51864971	1.998686055
0.064423349	13.52691833	1.864765311
-0.927081918	13.58800601	1.614877941
0.043610397	6.114305695	1.796801077
-0.189993429	6.192532161	1.754185674
-0.44624607	6.540148956	1.78867005
0.044861092	6.28965708	1.591334756
-0.397648228	13.57114589	2.249113606
-0.893266249	13.60189586	2.126057949
0.600602555	13.53565032	2.001462677
0.105946311	13.52962869	1.865175032
-0.389629897	13.53964496	1.735667128
-0.885196428	13.58781348	1.614524724
0.061164887	5.99613926	1.762122499
-0.169374205	6.1344157	1.737567422
-0.420597057	6.455807928	1.765242326
0.063919947	6.266223924	1.585448199
-0.355363951	13.54764715	2.245028064
-0.85005067	13.580905	2.122359597
0.64104819	13.51101681	1.998101453
0.14742175	13.52626839	1.864765311
0.095294384	7.18167701	2.110599745
-0.390449472	6.290489865	1.719702948
0.082462435	6.214622026	1.572448667
-0.31395858	13.55557719	2.246171996
-0.807148401	13.5627365	2.119123304
0.683694375	13.53269893	2.001608828
0.188739207	13.51287589	1.862990046
0.117499409	7.19190312	2.113701093
-0.131648324	6.131491466	1.736477611
-0.367910416	6.236763548	1.704698668
-0.272408819	13.55844938	2.246498868
-0.765089323	13.55725707	2.117890442
0.725261846	13.53152574	2.001754743
0.230870197	13.55185295	1.868452573
0.114338776	5.891722945	1.731672989
-0.113650873	6.176119367	1.749009489
-0.349043859	6.242678998	1.706014857
-0.230760411	13.55626181	2.246008442
-0.723808521	13.56546045	2.11881503
0.766660591	13.52726118	2.001462677
0.271987619	13.52830089	1.865311529
-0.223710078	13.55927507	1.737700719
0.131810152	5.864487145	1.723778711
-0.094554763	6.166818343	1.746285198
-0.33146788	6.273585413	1.71417509
-0.189527187	13.58255426	2.250257775
-0.682286097	13.56959113	2.119123305
0.80821707	13.52583328	2.001608828
0.313995504	13.5491905	1.868315959
0.149041979	5.834322533	1.715038526
-0.075599385	6.164192967	1.745467899
-0.317253466	6.37574458	1.741814598
-0.147232782	13.52585459	2.24077873
-0.640092893	13.55977666	2.117273892
0.850082145	13.5292133	2.002485494
0.354548769	13.50954226	1.862990046
0.21082338	7.367342108	2.165859926
-0.056006277	6.090311359	1.72449064
-0.295936898	6.339104486	1.731548417
-0.106120941	13.5755692	2.248950288
-0.598750432	13.56759989	2.118198717
0.891455034	13.52456763	2.002193193
0.395848649	13.50343996	1.862307215
0.232422333	7.335015364	2.15655588
-0.036867215	6.016368643	1.7035135
-0.064522715	13.58668333	2.250747965
-0.556514798	13.55456384	2.115887011
0.933488374	13.52966419	2.003362396
0.439711719	13.5774105	1.872685934
0.254658145	7.326596683	2.154300438
-0.018306042	5.982777246	1.693978424
-0.022678195	13.49112084	2.234895275
-0.516014967	13.58484126	2.120356168
0.974494584	13.51982951	2.002339343
0.480486985	13.5512476	1.869271899
-0.015614891	13.49167852	1.728803772
4.89E-5	5.971259522	1.690709231
0.018759982	13.52565714	2.240615413
-0.472404274	13.53106226	2.11172613
1.015597573	13.51184444	2.001608828
0.52339427	13.584356	1.874051596
0.524143335	13.49360761	1.359045361
0.018353618	5.966420308	1.689347027
0.060427428	13.56401047	2.246989057
-0.432210019	13.57392524	2.118198716
1.056043286	13.49584322	1.999708872
0.56350329	13.54507428	1.868862176
0.036687809	5.971146852	1.690709232
0.101565953	13.50062342	2.236529633
-0.390734278	13.58111362	2.119123305
1.09968845	13.52014854	2.003800848
0.604614203	13.53338567	1.867496634
0.14352812	13.55154706	2.245028064
-0.347923851	13.53780061	2.112188424
1.134920767	13.44277926	1.992840746
0.646272945	13.53443573	1.867906238
0.089299595	7.271571956	2.05903649
0.18486046	13.53328589	2.242086217
-0.307238276	13.57634095	2.118044462
1.184005799	13.52891406	2.006138783
0.687843241	13.53337861	1.868042851
0.112671253	7.340532063	2.078651426
0.226098599	13.51588632	2.239307926
-0.26548861	13.57228016	2.117273893
1.22131069	13.4789123	1.999270657
0.729253211	13.52922631	1.867769743
0.233923117	13.55910244	1.737700719
0.134517864	7.303595625	2.068299054
-0.223554913	13.55524792	2.114500129
1.266072487	13.51154494	2.004677514
0.770644124	13.52494666	1.867496633
0.159239352	7.410887097	2.098811386
0.309026276	13.5142449	2.239307926
-0.181489513	13.52030326	2.10895213
1.309330351	13.52630616	2.007454137
0.812193844	13.5235075	1.867633128
0.181738674	7.400744949	2.096087213
-0.079701281	6.17666614	1.685482609
-0.140274958	13.5464848	2.112958993
1.353378946	13.54781889	2.011253576
0.853117798	13.51205424	1.866404081
0.358943983	13.56529882	1.738844651
0.203326972	7.359756608	2.08464503
-0.060751158	6.176881391	1.685482607
-0.098649465	13.53795876	2.11157211
1.388450028	13.48062316	2.001900893
0.894829993	13.51332726	1.866950298
0.225374024	7.341787033	2.079741236
-0.040938737	6.04969713	1.650735842
-0.056952562	13.49966421	2.105561818
1.432202072	13.49892574	2.005262116
0.935462244	13.49865909	1.865311528
-0.022281984	6.023746759	1.643628584
-0.015581389	13.53929769	2.11172613
1.474146455	13.4993855	2.005992868
0.979159702	13.5273435	1.869681621
0.272330967	7.392188567	2.094452617
-0.003802502	6.025716089	1.644155012
0.026030539	13.57781582	2.117736187
1.514009358	13.48103637	2.003946763
1.020432722	13.52131174	1.869271898
0.524692836	13.5420324	1.736556787
0.529442022	13.53636369	1.236185149
0.014693556	6.029558367	1.645207987
0.067410738	13.5223412	2.109106385
1.554113816	13.46551819	2.002339344
1.061678071	13.51515549	1.868862177
0.033144115	6.020802538	1.642838823
0.10923852	13.5645557	2.115732991
1.596000255	13.46559873	2.003070096
1.101202386	13.48813806	1.865584755
0.051466655	6.003308123	1.638100613
0.150930401	13.5710727	2.116811599
1.637543535	13.46260316	2.003362397
1.143163692	13.49160622	1.866540695
0.19180812	13.51719681	2.108489837
1.685084046	13.50757974	2.010815125
1.180563333	13.44264085	1.860258723
0.233345592	13.52049604	2.109106386
1.730657419	13.53472877	2.015637617
1.232203601	13.55339729	1.876100088
0.274744463	13.51576482	2.108489836
1.768704213	13.50287154	2.011692027
1.269142986	13.50023855	1.869271899
0.316278307	13.5178223	2.108952131
1.8076238	13.47875191	2.008915404
1.312278643	13.51402913	1.871729994
0.356755513	13.4792556	2.103096094
1.854751014	13.51528638	2.015199165
1.35699229	13.54246763	1.876236582
0.398632691	13.49587466	2.105870093
1.899369183	13.53206497	2.01856039
1.397006727	13.52346032	1.874188209
0.44106605	13.52618892	2.110801542
1.948463614	13.57905258	2.026451568
1.433143906	13.46887186	1.867223407
0.243723151	7.356870596	2.008469807
0.482949274	13.53563341	2.112496698
1.981360085	13.51330392	2.017537336
1.479527509	13.51069458	1.873641873
0.265803959	7.342590875	2.004784571
0.525085898	13.54988582	2.114962424
2.050793575	13.69402804	2.045449237
1.519751245	13.49526296	1.872139716
0.530152247	13.49796777	1.601690414
0.56566293	13.52451827	2.111263837
1.559211124	13.47380836	1.869818116
0.608836995	13.56022732	2.117119874
1.603112544	13.49060226	1.872822547
0.649726119	13.5434914	2.114808168
1.645932545	13.49742116	1.874461317
0.691122785	13.53847467	2.114345875
1.692497316	13.53359268	1.880196953
0.733509434	13.55207601	2.116811599
1.731868815	13.51163247	1.877875352
0.77485743	13.54581656	2.116195286
1.774087448	13.51214888	1.878694678
0.815044346	13.52069102	2.112650718
1.816985518	13.51744269	1.880196953
0.85752106	13.53390458	2.115116443
1.854128467	13.48039951	1.87582686
0.900545031	13.55388489	2.118661011
1.907068509	13.55705	1.887298251
1.400276294	13.52652596	1.742530483
2.461160824	13.81792582	1.552497785
0.943288536	13.56781458	2.121280754
1.939345722	13.48641927	1.878285075
1.448709109	13.58726263	1.750919003
2.501946553	13.80150815	1.551508348
0.981475066	13.5175548	2.11388358
1.985896776	13.51568922	1.883201266
2.544637737	13.79572247	1.551728171
1.987415331	13.4965427	1.372964238
2.549286476	13.78719846	1.034305321
1.023389132	13.52039127	2.114808168
2.066459279	13.77012306	1.919527077
2.590616252	13.80738851	1.553927104
2.072907806	13.78358691	1.402804708
2.591204197	13.77735198	1.034158216
1.063545145	13.500443	2.112188424
2.129098635	13.89689085	1.938099528
1.5791849	13.62064772	1.757019777
2.632405535	13.79644621	1.553597252
2.117752267	13.793881	1.404507017
2.638518544	13.79578525	1.0361446
1.11269835	13.59165353	2.126982773
2.172641829	13.89616617	1.938918973
1.610646387	13.52906433	1.745835084
2.673395186	13.78147506	1.552827637
2.161601307	13.79714884	1.405508375
2.684447703	13.80622524	1.037542448
1.152300741	13.56356365	2.123129931
2.215108301	13.88845625	1.938782358
1.654671267	13.5447354	1.74850418
2.206432372	13.80617255	1.407110548
2.724858459	13.78814126	1.036806689
1.191047923	13.52748433	2.118044462
2.258025128	13.88355057	1.939055467
1.696218077	13.53959487	1.74850418
2.689368872	13.4227386	1.514237802
2.250699319	13.81112259	1.408312178
1.235682854	13.55820556	2.123438205
2.729142795	13.4075773	2.021190861
2.300770756	13.87753523	1.939192081
1.739012226	13.5441651	1.749775071
2.297462738	13.8306538	1.411015844
1.276160608	13.54254623	2.121589029
2.69234944	13.02228709	1.964344362
2.345150736	13.88115624	1.940694238
1.783531634	13.56138529	1.75269844
2.69701856	13.04487027	1.473449152
2.340880179	13.82942585	1.411616659
1.318564079	13.54741804	2.122975911
2.726393866	12.98588951	1.960106472
2.387054493	13.86999096	1.94014802
1.820893658	13.5243924	1.748631257
2.710477727	12.91007969	1.459156673
2.386340389	13.83982839	1.413419104
1.356270245	13.504968	2.116965855
2.764365095	12.96875656	1.958791236
2.432503056	13.87918992	1.94246962
1.864001758	13.53053367	1.750156421
2.750901371	12.90559195	1.459596436
2.426724192	13.82068272	1.412217474
1.400952438	13.5321929	2.121897068
2.803302923	12.95634662	1.958206634
2.477334358	13.88433999	1.944244886
1.908133341	13.54341309	1.752571362
2.787959791	12.88543386	1.458277146
2.468588814	13.81023403	1.411917067
1.438062006	13.48656705	2.115424718
2.845585344	12.9592798	1.959960321
2.520981203	13.88252199	1.945064211
1.948968029	13.5325865	1.751935857
2.828970772	12.88361534	1.459046643
2.509699805	13.79574315	1.411216116
1.476737058	13.45753747	2.111572111
2.886406085	12.95531737	1.960690956
2.565360242	13.8844638	1.946429873
1.992353518	13.53930033	1.753588098
2.874103831	12.9000992	1.461905162
2.550020928	13.77721674	1.410114622
1.995431021	13.52579368	1.24763544
1.526547959	13.52854399	2.123438205
2.927883494	12.95412006	1.961860041
2.60886001	13.88139637	1.947112704
2.08341351	13.86269836	1.796293397
2.913009708	12.88831276	1.461575429
2.596694731	13.79279512	1.412517881
2.078460722	13.79533815	1.273080782
1.558031306	13.43742726	2.109876955
2.967391397	12.94411216	1.96171389
2.651807143	13.87527284	1.947385812
2.128641552	13.87388864	1.79858126
2.943431048	12.83959379	1.457067768
2.63955958	13.78769539	1.412818289
2.123953535	13.80956633	1.274989085
1.597497304	13.41786706	2.10756525
3.005521314	12.92820237	1.960690955
2.695119082	13.87096172	1.947932029
2.172576865	13.8761129	1.799725075
2.97920735	12.81501368	1.455308598
2.68830982	13.81273888	1.416222906
2.16384015	13.78724441	1.273535089
1.64260922	13.44526812	2.112650719
3.048347916	12.93240122	1.962736826
2.711559843	13.73045487	1.929359579
2.216858814	13.88015626	1.801123161
3.040856674	12.90062056	1.466082971
2.207073185	13.78644069	1.274080352
1.688027195	13.47349835	2.117890442
3.085940359	12.91432836	1.961421589
2.706893441	13.48896769	1.896584417
2.26118581	13.8840589	1.802521366
3.069563786	12.84579454	1.460915725
2.256257849	13.82186749	1.277988033
3.138819812	12.95960372	1.969751338
2.714623173	13.31558567	1.873368764
2.304745557	13.88292656	1.803283947
3.115276907	12.86239914	1.463884156
2.303065466	13.84140365	1.280441717
3.182573408	12.96624614	1.97223566
2.69359585	13.00841881	1.831307436
2.347988678	13.87970229	1.803792257
3.2307781	13.16263834	1.499175709
2.700415213	13.02074808	1.338317132
2.347017538	13.84310939	1.281259611
2.727173341	12.97004071	1.827073956
2.39241292	13.8831866	1.805190344
3.281460529	13.19414015	1.503903192
2.721280923	12.92185607	1.329004502
2.390493485	13.84173234	1.281804875
2.766952148	12.96161317	1.827073956
2.436880551	13.88652733	1.80658843
3.454033604	13.70832556	1.563711923
2.756751251	12.89398653	1.327001786
2.43398302	13.84021744	1.28235002
2.924039469	11.45642499	1.746603469
2.808383013	12.96080876	1.828166509
2.480344446	13.88386796	1.807223935
2.800516692	12.90491478	1.329004502
2.4755552	13.82778339	1.281895712
1.32393865	5.107234729	1.612646372
2.85068607	12.96374221	1.829805279
2.523815025	13.88107264	1.80785944
3.562210837	13.78021755	1.574376385
2.843946979	12.913753	1.330806947
2.51707422	13.81522485	1.281441287
1.344700348	5.122573613	1.618784815
2.888071806	12.94430001	1.828303005
2.566570121	13.87423989	1.807986635
2.000986332	13.54809657	1.623826625
3.60749184	13.78076186	1.575695674
2.884854383	12.91079373	1.331407762
2.557813151	13.79862506	1.280623392
2.028677994	13.68930189	1.131677949
1.356970754	5.105484583	1.61469248
2.664628399	10.05299266	1.536315422
2.925802599	12.92668261	1.827073956
2.610040727	13.87117458	1.808622022
2.082975199	13.8099629	1.655971053
2.924890434	12.90382277	1.331608033
2.599950185	13.78973425	1.280532555
2.095273177	13.84561411	1.145126068
1.376354968	5.115149807	1.619077117
2.964117586	12.91185225	1.82625463
2.651839083	13.85920428	1.808113712
2.129262763	13.82902608	1.659032467
2.960675316	12.87830421	1.329905725
2.644869584	13.7953855	1.281804875
2.134241344	13.81646571	1.143251502
1.400335046	5.141352571	1.628723175
3.001919576	12.89497953	1.825162078
2.693209508	13.84516207	1.807351131
2.17060073	13.81556082	1.658208253
2.992265059	12.83524514	1.326400971
2.683751538	13.76961169	1.280169085
2.170878227	13.77342558	1.140235864
1.417372613	5.141641968	1.630184682
3.043514878	12.89438549	1.826391125
2.720475115	13.75996282	1.797310252
2.219733058	13.85099945	1.66327131
3.043759024	12.8773248	1.331708169
2.224197953	13.83558283	1.145941101
1.430827466	5.128978909	1.62755397
3.088362059	12.9071471	1.82953217
2.71305419	13.50454648	1.765027064
2.26285746	13.84804454	1.663742306
3.090902646	12.89985646	1.335012651
2.720438642	13.51564894	1.258086161
2.265022388	13.81885926	1.145126068
1.434865383	5.083148835	1.61440018
3.134950497	12.9264933	1.833629037
2.677513264	13.11907989	1.715712566
2.304679369	13.83711925	1.663271311
3.12130675	12.85260437	1.331107354
2.727377617	13.33844724	1.24236472
2.308885219	13.82069272	1.145859563
1.433383087	5.018951339	1.595400364
3.197054828	13.00820447	1.846602464
2.685536698	12.955405	1.695376653
2.351772467	13.85739671	1.666568163
3.168094122	12.87291861	1.334211564
2.683036853	12.91951813	1.204105929
2.353282576	13.82533423	1.146837675
1.441872898	4.990642859	1.587800416
3.351374077	13.45782358	1.911879445
2.730582768	12.97234118	1.698681254
2.391907075	13.83641673	1.664919736
2.723071755	12.9131747	1.204287723
2.396027688	13.82001314	1.147000634
1.442959474	4.93754539	1.572308331
2.911076096	11.55482618	2.091229556
2.892715449	11.46589664	1.630150344
2.772441232	12.97360223	1.699952263
2.434689797	13.83096873	1.665155175
2.76309288	12.90670677	1.204469398
2.434083827	13.78806017	1.144963108
1.441836525	4.878069135	1.554770023
1.302970659	5.113482057	1.550667751
2.927633447	11.45600766	1.630013848
2.812441038	12.96600501	1.70007934
2.476410372	13.81952444	1.664684179
3.509909085	13.71652235	1.424934839
2.803734428	12.90303543	1.204923824
2.482543364	13.81486065	1.147815668
1.445566137	4.83605595	1.54278544
2.851140805	12.95247159	1.699443835
2.515589651	13.79427711	1.662564757
3.574189876	13.79141033	1.433846925
2.842663712	12.89145473	1.204651192
2.526170168	13.81404219	1.148386203
1.445454612	4.782165096	1.527001052
1.336020059	5.111888361	1.552641377
2.639211761	10.06942868	1.435002113
2.890216386	12.9407601	1.699062486
2.559709691	13.79625855	1.663742306
2.888723683	12.91182826	1.20737739
2.568356703	13.80524764	1.148304783
1.445585119	4.730150454	1.511801154
1.354642223	5.118895725	1.556024657
2.927931854	12.92312575	1.697918672
2.603128799	13.79419588	1.664448741
2.927000551	12.89707839	1.206832246
2.611439708	13.80121998	1.148630702
1.37108523	5.117495853	1.556870447
2.966899326	12.91118144	1.697537321
2.651612176	13.81832726	1.668334367
2.978617247	12.94044394	1.211739496
2.652450879	13.78629225	1.148060166
1.389290497	5.122525056	1.559689865
3.007846944	12.90781488	1.698299904
2.682205367	13.74969802	1.66103411
3.020567577	12.94094225	1.212648229
2.698177757	13.79569604	1.149527274
1.404745608	5.117313579	1.559407936
3.049485816	12.90721343	1.699443835
3.040991414	12.85021058	1.205014662
2.718921739	13.67884522	1.140480362
1.426088583	5.133316941	1.565610632
3.087684152	12.89200974	1.698681254
2.675722684	13.28225683	1.606518032
3.089925668	12.88052444	1.208740549
1.430665848	5.089201502	1.553487168
3.133539387	12.90850086	1.702112931
1.427373882	5.018344907	1.533187497
3.264586922	13.27061254	1.751173276
2.697759311	12.97974289	1.571900847
2.694061759	12.93023358	1.080086194
1.434007888	4.983515143	1.523883565
3.404122487	13.6570605	1.803538103
2.734491969	12.95683013	1.570134642
2.733099768	12.91898291	1.079841696
1.436687858	4.935795862	1.510632381
2.901162501	11.51430993	1.967034744
2.905184407	11.50484213	1.520488161
2.772149743	12.93866995	1.568957212
