x	y	z
3.6606641	2.747842403	-0.083571983
4.395567742	2.822270075	-0.187889938
3.762419234	2.61391483	-0.207474958
3.814764967	2.646159396	1.364305721
3.531085372	2.652524184	1.250460027
3.243628344	2.632229129	1.139800058
4.13499994	2.643994728	1.294929565
3.797258903	2.634016096	1.169218953
3.704895397	2.765528602	0.083524125
3.76068836	3.02578906	0.041870257
4.110857658	2.624112301	0.003319668
3.775419283	2.608339601	-0.04116733
3.664268232	2.733012097	-0.083462452
3.613944697	2.90408661	-0.129338724
4.39240972	2.801248417	-0.187386697
3.819750383	2.636407057	-0.210189413
3.55231484	2.651462648	1.255091426
3.28097634	2.645884008	1.150066125
4.15778394	2.640627279	1.299521507
3.818094262	2.63115559	1.173143323
3.714968812	2.75534057	0.083560253
3.767610458	3.012363863	0.041844232
4.152671493	2.632906983	0.003346895
3.81473292	2.61824748	-0.041508224
3.664602868	2.71580441	-0.083279905
3.707198477	2.960351221	-0.132350502
4.398450601	2.786155316	-0.187278857
3.903619158	2.676649633	-0.214351576
3.569706615	2.647429566	1.25836062
3.298865194	2.643648667	1.153488149
4.1789507	2.636112823	1.303603235
3.846947331	2.633668389	1.179520425
3.720184867	2.74155755	0.083487997
3.766656542	2.992703956	0.041731467
4.174268624	2.628680239	0.003357786
3.818616572	2.60371492	-0.041463371
3.652790015	2.689727683	-0.082823527
3.741320074	2.96884716	-0.133242873
4.408669291	2.773712276	-0.18735074
4.035656799	2.749021345	-0.221137714
3.595627479	2.64959355	1.2646265
3.322053487	2.645535007	1.158752903
4.216516097	2.641760727	1.312787119
3.875049799	2.635483631	1.185652311
3.731805262	2.732493914	0.083560252
3.780529317	2.984851887	0.041783513
4.224704637	2.642375447	0.00339182
3.8563914	2.612176002	-0.04178632
3.664252485	2.680869902	-0.082896543
3.669562753	2.893603027	-0.13037054
4.418005594	2.760703032	-0.187386696
3.613831826	2.645939257	1.268168091
3.339989054	2.643113492	1.162174927
4.241019696	2.639028944	1.317889274
3.903199177	2.637151104	1.191784195
3.799109585	2.980646348	0.041887605
4.255726461	2.643648851	0.003410199
3.948179216	2.656715619	-0.042692382
3.67488616	2.671379236	-0.082951312
3.640655127	2.852737345	-0.129031969
4.433247294	2.751351633	-0.187674259
3.633603441	2.64333004	1.272254583
3.35642389	2.639413709	1.165070518
4.282819337	2.646846712	1.328348699
3.922540837	2.632727749	1.19521802
3.782534374	2.734144998	0.084318901
3.833472123	2.988651103	0.042165177
4.279136306	2.640031362	0.003422451
3.979588701	2.660150034	-0.042943563
3.681443539	2.658921333	-0.082914797
3.666741763	2.855065159	-0.129645479
4.439115573	2.736164732	-0.18756642
3.672108462	2.654151506	1.282879351
3.375908216	2.638014076	1.169018969
3.943505352	2.62928578	1.19914239
4.271260361	2.623373427	1.123839059
3.781971669	2.716111921	0.084120208
3.848947067	2.981775348	0.042234572
4.307679552	2.639429654	0.003438787
4.006890931	2.660650778	-0.043149896
3.692832905	2.649946114	-0.08298782
3.639907024	2.816275697	-0.128390578
4.43896546	2.717315033	-0.187206959
3.691175604	2.650730638	1.286693453
3.422847039	2.657820228	1.182443844
3.987924721	2.641264286	1.210179623
4.326771535	2.639220256	1.136309068
3.814703358	2.721918188	0.084662104
3.859661666	2.971172788	0.04225192
4.328571236	2.63399881	0.003448997
4.045085294	2.668166583	-0.043472845
3.697689076	2.636282506	-0.082914797
3.64456755	2.802049209	-0.128251148
4.430202489	2.693300967	-0.186488037
3.7094728	2.646658493	1.290235041
3.446260983	2.659093273	1.187708485
4.006537851	2.635943898	1.213368231
4.366562568	2.645145294	1.144622485
3.823851831	2.710780387	0.084680164
3.854462467	2.9483817	0.042095782
4.364875032	2.637774509	0.00347146
4.087544718	2.678213017	-0.04384065
3.707391303	2.626081553	-0.082951312
3.645203727	2.784786139	-0.127972273
4.421334387	2.669366316	-0.185769116
3.72699458	2.64194292	1.293504236
3.459762086	2.652616876	1.18955122
4.025967515	2.63106462	1.216802057
4.378002035	2.633748276	1.145497601
3.830515463	2.697884592	0.084644036
3.751239307	2.851223706	0.040872725
4.398670439	2.639808341	0.00349188
4.115856135	2.678751137	-0.044055954
3.727695484	2.623326278	-0.083225136
3.653730063	2.773589765	-0.127972272
4.414075386	2.646539136	-0.185122093
3.750028986	2.641022571	1.298680422
3.479394962	2.650759478	1.193499671
4.058414553	2.634536459	1.224160248
4.396951443	2.626810148	1.148341695
3.840412967	2.687266507	0.084680164
3.768746719	2.84633098	0.040968141
4.412761291	2.629884767	0.003496645
4.155126447	2.686197977	-0.044387873
3.739823301	2.614742003	-0.083316413
3.649453488	2.752735913	-0.127526087
4.440206214	2.643721001	-0.185876956
3.780187971	2.644950055	1.306308505
3.500587229	2.649971256	1.197974668
4.077070218	2.628902653	1.227348858
3.777721223	2.639003236	1.118502614
4.424291505	2.624759118	1.153373403
3.846997375	2.674330368	0.084644036
3.747068778	2.811947442	0.040638523
4.434578585	2.624483064	0.003507536
4.180176281	2.684243777	-0.044567291
3.779853213	2.62550143	-0.084028361
3.657881699	2.741526701	-0.127526087
4.489587404	2.654500121	-0.187602361
3.80645589	2.645971514	1.312574385
3.527974936	2.653717146	1.204555497
4.108790945	2.631544855	1.234461719
3.805758577	2.641252792	1.12439942
4.472677965	2.634947286	1.163874547
3.86094292	2.666492665	0.08477048
3.747661694	2.794460998	0.04055178
5.898764178	3.466629598	0.004657202
4.206096098	2.682698516	-0.044755682
3.804348687	2.625249832	-0.084393469
3.645430575	2.714768202	-0.126801026
4.501157572	2.642737726	-0.187746157
3.830390327	2.645216104	1.318023082
3.546145515	2.650389259	1.207977519
4.131568785	2.628293139	1.238876637
3.821044518	2.634528827	1.126522298
4.498428236	2.631559658	1.168468756
3.869105354	2.654634835	0.08477048
3.749789721	2.778187764	0.040482389
5.937009996	3.464644905	0.004678983
4.226977888	2.677808768	-0.044890244
3.826404157	2.623176798	-0.084703801
3.649724485	2.700598566	-0.126661596
4.525647433	2.638479311	-0.188429122
3.848008743	2.639984202	1.321292279
3.562779859	2.645824323	1.210873112
4.164199719	2.631140659	1.246234831
3.845144023	2.633777062	1.131239652
4.545293099	2.640292011	1.178532402
3.875579277	2.641625769	0.084734352
3.755074121	2.764299308	0.040447691
5.975298994	3.462458029	0.004700765
4.247022121	2.672283663	-0.045015834
3.841871379	2.616490448	-0.084868101
3.657187159	2.688796551	-0.126633716
4.548423803	2.633093892	-0.189040204
3.880737103	2.644964775	1.32973766
3.590287419	2.649201211	1.217453942
4.187032805	2.627628383	1.250649862
3.868471227	2.632355167	1.135721206
4.565205453	2.63316021	1.181595245
3.886976762	2.631965602	0.084806608
3.760308871	2.750404542	0.040412994
6.017097304	3.462063342	0.004725269
4.269616241	2.668250384	-0.04516834
3.919441843	2.651753931	-0.086401527
3.657347255	2.671667432	-0.126354841
4.960230421	2.851208	-0.205791061
3.914328945	2.650308748	1.338455437
3.616292852	2.651293583	1.223508226
4.209883736	2.624000728	1.255064779
3.89746153	2.634624525	1.141853926
4.593584291	2.630780539	1.186845819
3.94563975	2.654069069	0.08590846
3.765493739	2.736503695	0.040378297
6.037241755	3.449043424	0.004732756
4.285429023	2.65988484	-0.045249078
3.979837807	2.674853606	-0.087551606
3.659863591	2.656324184	-0.126159636
4.981973547	2.843407377	-0.206330259
3.942400622	2.651712414	1.345266219
3.628308741	2.643026525	1.224824415
4.257480342	2.635565824	1.266837888
3.92004738	2.632406418	1.146099564
4.631321775	2.633556881	1.19450287
3.965402104	2.649728411	0.086161347
3.757657089	2.713230729	0.040204814
5.079695305	2.881367701	0.003975161
4.311444939	2.657744189	-0.045437466
4.049558541	2.703714259	-0.088902486
3.672049889	2.64800654	-0.126299066
4.99067354	2.828109431	-0.206330259
3.957718022	2.644415766	1.347718118
3.65671987	2.646589165	1.23166846
4.288670144	2.63670846	1.273705536
3.94508197	2.631692312	1.151052946
4.662321322	2.632288649	1.200409691
3.979343928	2.641421013	0.086287791
3.762713592	2.699358239	0.040170116
5.011835238	2.822587117	0.003915262
4.328106511	2.649725356	-0.045527175
4.233646494	2.80788117	-0.092754317
3.682594393	2.638474972	-0.126382736
4.992359054	2.808864685	-0.206042682
3.985853464	2.645563457	1.354528899
3.676570967	2.643806382	1.235617027
4.333972633	2.646272991	1.284742885
3.970958845	2.631386182	1.156242127
4.692505719	2.63037761	1.20609788
4.011635619	2.645161214	0.086811619
3.766091582	2.684319276	0.04011807
5.017852782	2.80573361	0.00391322
4.341342256	2.639551482	-0.045581002
4.230551778	2.787178546	-0.09249874
3.691486137	2.627744263	-0.126410616
4.993973321	2.789636361	-0.20575512
3.7035042	2.645974201	1.241934527
4.363623632	2.646033276	1.291119985
4.009046752	2.638960548	1.164969322
4.72783782	2.63115303	1.213098567
4.043151247	2.648180494	0.087317387
3.767780575	2.668129329	0.040048679
5.117365498	2.840803111	0.00398401
4.359691859	2.632422464	-0.045688651
4.254142039	2.784041246	-0.092827333
3.704427376	2.619869676	-0.126577941
4.973667663	2.758307553	-0.204568898
3.738351896	2.653585667	1.250884519
4.385008876	2.640635366	1.295044355
4.042337876	2.643135096	1.172281381
4.765780857	2.633152202	1.220755619
4.088970307	2.660300274	0.08813023
3.793941044	2.669215777	0.040239511
5.982589323	3.297144864	0.004649714
4.383184403	2.628291102	-0.045850128
4.272722407	2.777515827	-0.093046395
3.725533938	2.617687427	-0.127024127
4.982106978	2.743035497	-0.204568898
3.763820122	2.654335998	1.256675589
4.417218539	2.641599414	1.302157219
4.059392411	2.636543415	1.17487597
4.799502233	2.632596669	1.227318804
6.334814375	3.465969032	0.004915178
4.417002162	2.630179577	-0.046119254
4.283743696	2.766021117	-0.093101164
4.986114376	2.725341069	-0.20438916
3.783797489	2.651080013	1.260624157
4.442806588	2.63843046	1.307308012
4.071545252	2.626710948	1.176055309
4.832408466	2.631392116	1.233663243
6.370901918	3.46035922	0.004934918
4.452594487	2.632903009	-0.046406321
4.298942319	2.757184097	-0.093247203
4.993573885	2.709554662	-0.204353219
3.809332554	2.651584196	1.266415227
4.473426925	2.638084123	1.313930329
4.096766974	2.625217905	1.181008575
4.873935697	2.634650458	1.242195408
6.413175284	3.457882658	0.004959423
4.490831615	2.636951807	-0.0467203
4.302321336	2.740758979	-0.093137672
3.830938648	2.649213108	1.270890222
4.129396082	2.628290611	1.188084718
4.906930187	2.633065026	1.248539846
6.44667704	3.450460299	0.00497712
4.880719247	2.845787858	-0.050685428
4.301415727	2.721666004	-0.092936864
3.850975876	2.645641883	1.274838791
4.166189614	2.633784239	1.196340202
4.943405843	2.633136548	1.255759399
6.478426711	3.441926146	0.004993456
4.897215513	2.83530981	-0.050766166
4.319903807	2.714840889	-0.093155926
3.873417481	2.643603749	1.279576886
4.186594939	2.628741447	1.199878329
4.977339745	2.631640636	1.262322587
6.514607448	3.435562261	0.005013196
4.915427233	2.825754193	-0.050864845
4.323971616	2.698927775	-0.093064649
4.253522385	2.873197742	-0.143198443
3.904666206	2.647408347	1.287210691
4.227623674	2.63645407	1.209313152
4.592874174	2.631717927	1.131431871
6.622572973	3.466572582	0.00508807
4.928415944	2.813138947	-0.050909698
4.326282999	2.681961601	-0.092936864
4.329551789	2.905250624	-0.145457265
3.93757497	2.652123523	1.295370924
4.256345933	2.63626384	1.215209957
4.622175838	2.629704286	1.136657409
6.661573361	3.460991551	0.005109852
4.945722693	2.802935994	-0.050999407
4.34593004	2.896943836	-0.145708245
3.96253075	2.651296934	1.300898778
4.297522913	2.643559722	1.224644779
4.648102693	2.625611608	1.141046932
6.685492167	3.4474127	0.005120063
4.960399005	2.791182113	-0.051062204
4.364799031	2.890219742	-0.146042881
3.992339476	2.65354623	1.308006154
4.337954809	2.650120568	1.2338438
4.680870979	2.62521128	1.147108488
6.752119193	3.455587096	0.005162946
4.987271182	2.78619238	-0.051250592
4.365294278	2.87132182	-0.145764021
4.016563188	2.651916258	1.313270793
4.360188912	2.645368686	1.237853642
4.712825559	2.624158832	1.152961066
6.796569304	3.452063887	0.005188811
5.029899766	2.789794037	-0.051600456
4.359856471	2.848620935	-0.14528994
4.046461447	2.65386641	1.320378053
4.386596514	2.643012907	1.243042823
4.03133499	2.637510305	1.12017662
4.733692016	2.616784438	1.15609639
5.76891977	3.457936987	0.121510977
4.053954718	2.634561875	0.041939648
6.835703462	3.44559971	0.005210593
5.055953771	2.783995774	-0.051779874
4.408943896	2.640456019	-0.093831365
4.354321135	2.825980436	-0.144815874
4.058625842	2.644072572	1.321694241
4.40719312	2.637026962	1.246580837
4.051658057	2.633091174	1.123573844
4.793135809	2.630478569	1.168637685
5.79496613	3.449427305	0.12183612
4.094783594	2.64326249	0.042277941
6.890959791	3.446980378	0.005244627
6.333221134	3.462027973	-0.064751755
4.425617695	2.632027968	-0.09401392
4.347847615	2.802859097	-0.144313914
4.0910169	2.647331945	1.329591259
4.435313011	2.635407164	1.252241729
4.077720534	2.632270051	1.128556436
4.834674145	2.634007199	1.176789572
5.84425379	3.454526803	0.122648956
4.105398877	2.632306725	0.042303963
6.925686684	3.437827865	0.005263005
6.415881525	3.481691071	-0.065487366
4.442280786	2.623522199	-0.094196474
4.342115333	2.78034339	-0.143839834
4.12752373	2.653025595	1.338804468
4.476018295	2.641047193	1.26144075
4.097256267	2.627107832	1.131727166
4.868537094	2.63311859	1.183060218
5.89535131	3.460368498	0.123497935
4.14803639	2.64172245	0.042659605
7.001687956	3.448820685	0.005312695
6.42125119	3.459145694	-0.065433543
4.464970411	2.618479693	-0.094506805
4.361589853	2.773982732	-0.144202364
4.513446024	2.644496858	1.269696232
4.12501383	2.627082369	1.137162633
4.909333037	2.635747553	1.191003015
5.935309701	3.459383791	0.124112072
4.163727594	2.633795175	0.042737672
7.053563489	3.447522936	0.005344006
6.461814586	3.455461567	-0.065738548
4.778842814	2.782881517	-0.100969126
4.376840784	2.764859325	-0.144425449
4.543377149	2.643343354	1.275828953
4.151163704	2.625870082	1.142145225
4.940697405	2.633091664	1.196646504
5.964067453	3.45167544	0.12449141
4.181948662	2.627392145	0.042841764
7.093799741	3.440266534	0.005366468
6.487400345	3.443591045	-0.065891053
4.384455887	2.750887233	-0.144397569
4.571660558	2.641058766	1.281489845
4.186417081	2.630221557	1.149619169
4.969498087	2.628896238	1.201663067
6.003236734	3.449801185	0.125087487
4.198473384	2.619843552	0.042928504
7.161991368	3.446237252	0.005410031
6.521820758	3.436257101	-0.066133272
4.948434696	2.841124881	-0.104182025
4.393722996	2.737951582	-0.144425449
4.599129761	2.638141866	1.286914824
4.234130429	2.642115887	1.160490221
5.015635875	2.633640972	1.210859947
6.023344722	3.436817801	0.125286179
4.209890947	2.609057505	0.042963201
7.216749854	3.44535906	0.005443385
6.620942545	3.462572786	-0.067030359
4.956259037	2.825434815	-0.104163771
4.398702625	2.72235474	-0.144313914
4.627468003	2.635562288	1.292575833
4.26622614	2.643993317	1.167058179
5.045372168	2.629540058	1.216085486
5.957306151	3.374952631	0.123696627
4.31154971	2.653786302	0.04391736
7.271570173	3.444177254	0.005476738
6.646622173	3.450075529	-0.067182858
4.959683395	2.807260893	-0.10405424
4.395962987	2.702042001	-0.143951384
4.654987749	2.632354925	1.29800081
4.297542916	2.645187685	1.173399635
5.08729049	2.631571434	1.224237373
5.597994523	2.637771015	1.14850251
5.050004557	2.840514644	0.1046761
4.327349427	2.645240008	0.043995431
7.347266745	3.452472714	0.005525747
6.719400735	3.461725007	-0.067810822
4.970015968	2.793011319	-0.104090748
4.364984824	2.664584369	-0.142668588
4.318103891	2.639610735	1.176796862
5.130138441	2.633817064	1.232598236
5.634563095	2.633907913	1.154341739
5.057822414	2.82452069	0.104658039
4.340573515	2.63506487	0.044047473
7.421268963	3.459490848	0.005573394
6.750466838	3.45156412	-0.068017151
4.972449533	2.77434025	-0.103962963
4.353478558	2.639261306	-0.142027197
4.358653148	2.646063432	1.185629674
5.195701758	2.647367227	1.246393611
5.672944428	2.630672206	1.160545985
5.718791106	3.170658546	0.118133167
4.35291905	2.624317297	0.044090846
7.450000587	3.445101021	0.005587008
6.780642037	3.440792807	-0.06821451
4.991432967	2.764885697	-0.104182025
4.400092791	2.649094041	-0.143282098
4.387604041	2.645251274	1.191291755
5.203799322	2.631414671	1.246393611
5.709571784	2.626404008	1.166385096
5.263379868	2.897090211	0.108541617
4.464761679	2.673103578	0.045140421
7.491438817	3.436404273	0.005610151
6.871546088	3.460452219	-0.069021892
5.004272632	2.751968087	-0.104273302
4.395329989	2.627888019	-0.142863793
4.411576976	2.641284357	1.195594854
5.782900648	2.638669535	1.179705898
6.331254298	3.459607407	0.130343871
5.829263889	3.465796601	0.058828274
7.57476323	3.446536504	0.005664605
6.913436834	3.45499987	-0.069335867
5.025855393	2.743788768	-0.104547126
4.426578662	2.628169719	-0.143616734
4.443101806	2.641675012	1.201936313
5.823215525	2.635509951	1.186275045
6.352384669	3.445888074	0.130560638
5.85881305	3.459080956	0.059019105
7.649104839	3.452075948	0.005712253
6.975067517	3.459097055	-0.069847208
5.060620601	2.742648723	-0.105094781
4.44323161	2.619653542	-0.143895608
4.461250154	2.633973723	1.204654163
5.855492192	2.628503818	1.191201846
6.386695106	3.439182258	0.131048338
5.887513225	3.45171062	0.059201261
7.69525617	3.444526312	0.005738799
7.034095933	3.461523554	-0.070331637
6.505979605	3.500193985	-0.134887157
4.465050392	2.614090188	-0.144341794
4.505440718	2.641457296	1.214392846
6.473048315	3.460107204	0.13260177
5.946469935	3.461805159	0.059687016
7.748744928	3.439971793	0.005770791
7.073436534	3.453967611	-0.070618708
6.516687523	3.480217354	-0.134887157
4.626011004	2.689302798	-0.149277744
4.550560867	2.649184279	1.224358027
4.92798825	2.626939751	1.136977544
6.518961733	3.45897719	0.133324297
5.990825684	3.463062702	0.06002531
7.821497291	3.443583205	0.005817077
7.120895602	3.450126613	-0.070986513
6.51938344	3.45599348	-0.134722856
4.974470452	2.871494771	-0.160237235
4.572159351	2.643010243	1.227981635
4.976732176	2.633348305	1.146354308
6.556967099	3.453404433	0.133884253
6.017032799	3.45362693	0.060181444
7.87876423	3.439978015	0.005851792
7.160286424	3.442127497	-0.071273576
6.537034215	3.439700551	-0.134868903
4.960707971	2.843295695	-0.159512189
4.594607318	2.637213359	1.231831855
5.010813629	2.631736627	1.15233945
6.619808827	3.460600834	0.134949984
5.083235381	2.896953985	0.050752612
7.966365504	3.449165264	0.005908969
7.230382064	3.448555461	-0.071865659
7.444432909	3.888046029	-0.153343094
4.977226828	2.832512844	-0.15976317
4.626371018	2.636608719	1.238173313
5.044931592	2.629940342	1.158324591
6.659681604	3.455471175	0.135546075
5.656921239	3.200947541	0.056382155
8.049502969	3.455874479	0.005962743
7.300583407	3.454585394	-0.072457734
7.460764869	3.867489339	-0.153434364
4.974579964	2.810836872	-0.159400639
4.655631085	2.634394724	1.243835395
5.071252587	2.623906569	1.1625142
6.713807343	3.457453479	0.136431159
5.075632913	2.851505607	0.050501062
8.068347872	3.43468784	0.005968868
7.359122111	3.454692661	-0.072933193
7.478818512	3.847783737	-0.153562156
4.980564604	2.794094474	-0.159316984
4.686619452	2.632980109	1.249950357
5.103685954	2.620869401	1.168100348
6.750201716	3.450035346	0.136954995
5.100949918	2.845175399	0.050665872
8.130440341	3.431694527	0.006006986
7.558234165	3.519906681	-0.074799132
7.531549486	3.845736536	-0.154401896
4.984746605	2.776369282	-0.159177539
4.707434745	2.625706315	1.253347582
5.178927183	2.639460759	1.183462251
6.832089045	3.465493635	0.13840005
5.274115804	2.920583882	0.052296618
8.208271647	3.434914948	0.006056676
7.626187238	3.52312198	-0.075364295
7.590580735	3.846565306	-0.155369414
4.973121252	2.749937738	-0.158536149
4.763185283	2.637675714	1.266030499
5.206237965	2.633289413	1.187851301
6.868587978	3.457553932	0.138923885
5.559076924	3.056136274	0.055028984
8.240939192	3.418912941	0.006073012
7.693321434	3.52553678	-0.075920489
7.611278398	3.827751882	-0.155551968
4.985915966	2.737072654	-0.158675579
4.816492282	2.647919864	1.278034038
5.262459194	2.64148197	1.19882404
6.899735674	3.446741918	0.13933933
6.355766136	3.468771077	0.062809719
8.392889808	3.451809698	0.006177156
7.755990377	3.525503377	-0.076431829
7.597042323	3.791435119	-0.155022559
4.991656158	2.720327986	-0.158591923
6.512992698	2.658632258	2.150195037
5.285448969	2.632751723	1.202215662
6.968505178	3.454422042	0.140513437
6.370774098	3.451637277	0.062853089
8.439554181	3.44076811	0.006203703
8.002872339	3.608139813	-0.078755286
7.663293332	3.795177122	-0.156136123
5.021079231	2.716416633	-0.159261209
6.571649155	2.659084548	2.166856442
5.335666431	2.637365665	1.211791863
7.011368432	3.448914427	0.141163709
6.393663034	3.438706992	0.062974533
8.541858174	3.451953153	0.006271089
8.027596681	3.589693545	-0.07888985
7.684771074	3.776499106	-0.156336931
6.609954499	2.651013886	2.176794918
5.380683315	2.639107041	1.220171085
7.082117432	3.45677128	0.142373951
6.459756565	3.448744957	0.063521003
8.594182357	3.442463546	0.00630172
8.052284159	3.571129132	-0.079024415
7.370997798	3.594269666	-0.149728579
6.691817785	2.660042868	2.201056156
5.412544074	2.63416472	1.225557676
7.145780951	3.460740138	0.143439682
6.48179302	3.434997517	0.063633768
8.503394717	3.375861288	0.006227526
8.316750497	3.657925553	-0.081509341
7.746499625	3.74800004	-0.157121909
6.729309292	2.65106769	2.21070233
7.184301639	3.452225302	0.143999638
6.560445124	3.450941	0.064301675
8.506266835	3.346828123	0.006222081
8.335265523	3.635591203	-0.081581112
7.732723835	3.712100998	-0.156610755
6.777498941	2.64606101	2.223855887
6.060113411	2.632068959	1.159527895
7.238179664	3.450821195	0.144866662
6.591389012	3.441442301	0.064501187
8.519290222	3.321805438	0.006224123
8.351886889	3.612383619	-0.081634935
7.597842214	3.618711267	-0.153653426
6.872991142	2.659071873	2.252501877
6.093488989	2.624373501	1.164367911
7.279462831	3.443133699	0.145480813
6.648083355	3.445128332	0.064952245
8.514516502	3.289886292	0.006213232
8.491590758	3.641924083	-0.082890857
7.314206796	3.45613116	-0.147702259
6.941837987	2.66125163	2.272378597
7.383221525	3.464531729	0.147341328
6.708419129	3.450328489	0.065437993
8.50869315	3.257670343	0.00620166
8.621431117	3.666336008	-0.084048103
8.118722679	3.805858345	-0.163712007
6.979471856	2.651148069	2.282024771
7.434605703	3.460851823	0.148154171
6.769739395	3.455644928	0.065932421
8.501818258	3.225166183	0.006189408
8.606839754	3.628990679	-0.083796915
8.197449336	3.812131061	-0.165062887
7.043065048	2.650607003	2.300147683
7.492390316	3.45982325	0.149093451
6.817774329	3.453839013	0.066296739
8.499504204	3.194494288	0.006180559
8.617932143	3.602568089	-0.083796915
8.156449185	3.76267212	-0.164004085
7.090590569	2.643686806	2.313008936
7.532966682	3.450561242	0.149689527
6.890877374	3.464347104	0.066903932
8.507390066	3.167705295	0.006179198
8.639106169	3.580322906	-0.083895598
8.137951313	3.723901828	-0.163401661
7.169538063	2.64809697	2.336101203
7.551709958	3.431156543	0.149852099
6.924737982	3.45479672	0.067129461
8.505810125	3.137437318	0.00617103
8.728669488	3.586102213	-0.08465812
8.051921226	3.654700623	-0.161448372
7.243190116	2.650075734	2.357439429
5.285817171	2.632661546	1.144315145
7.630567471	3.438781944	0.151206838
6.972046662	3.45172599	0.0674851
8.506941852	3.108238419	0.006164904
8.883176471	3.61776669	-0.086048607
8.046684855	3.622592445	-0.161119772
7.30792992	2.648369009	2.375854641
5.331713654	2.635136921	1.152495643
7.76065861	3.468803295	0.153573113
7.0104264	3.443988129	0.067753999
8.508916043	3.079402408	0.006159458
9.343025527	3.771668191	-0.090390507
8.069629891	3.603188029	-0.161357088
7.389829023	2.652427947	2.399823578
5.381201004	2.6390842	1.161437056
7.786803396	3.451865826	0.153880196
7.052419448	3.437799895	0.068057595
8.50514377	3.048559145	0.006149929
9.34712543	3.740014757	-0.090318743
8.04682083	3.563434449	-0.160681648
7.450194956	2.648321742	2.416777285
7.461642711	2.655178638	2.089591685
5.404279025	2.629865415	1.164671203
7.841290768	3.447274717	0.15474722
8.498436461	3.01676436	0.006138357
8.484793497	3.364812604	-0.081886116
8.141020316	3.575315748	-0.162342874
7.496171692	2.638789342	2.429054172
7.507143706	2.645450035	2.10005111
5.461830276	2.637177281	1.175324935
7.93614942	3.459963084	0.156409042
7.196889471	3.45373343	0.069245962
8.500104696	2.988024189	0.006132912
8.494145998	3.338399944	-0.081877146
8.164784617	3.555911854	-0.162598444
7.557511011	2.634350726	2.446299944
6.760924452	2.647973945	2.133718952
7.575477431	2.643431148	2.116888229
5.504425349	2.636950234	1.182744403
7.961411166	3.441947282	0.15669805
7.235439752	3.444963298	0.069514861
8.500731898	2.958973584	0.006126786
8.500620671	3.310872952	-0.081841264
8.181162099	3.533224304	-0.162707967
7.602621498	2.623944225	2.458284529
6.831626357	2.651519561	2.15345453
7.651180532	2.6435437	2.135766448
5.550616549	2.638172178	1.190924901
8.042693039	3.447839938	0.158088909
7.288470467	3.442822526	0.069922542
8.49369766	2.92734042	0.006115215
8.498610865	3.28009707	-0.081724647
8.167148227	3.497481279	-0.162215082
7.771717123	2.655650036	2.510314854
6.887189946	2.64880122	2.168397413
7.744337162	2.649162496	2.15949148
5.591539468	2.636622871	1.197963855
8.12776611	3.454830355	0.159552025
7.365098269	3.45142097	0.07055576
8.496959672	2.89933072	0.00611113
8.503030141	3.251865143	-0.081670817
8.210971232	3.486476168	-0.162872268
7.901217468	2.672858526	2.549483687
6.956248814	2.650891552	2.187569366
7.799135441	2.641208091	2.172501984
5.63339348	2.635263448	1.205193181
8.152147693	3.435703044	0.159822973
7.395600986	3.438082875	0.070746591
8.505815365	2.873248857	0.00611113
8.505486168	3.222928477	-0.081599053
8.215177999	3.458553184	-0.16274449
7.935679243	2.657411737	2.557960425
7.030769689	2.654616481	2.208432898
7.907129062	2.650767869	2.200308741
8.206931808	3.429179323	0.160690011
7.500552136	3.458927928	0.071648708
8.511744617	2.846188494	0.006109088
8.504099254	3.192601376	-0.081491399
8.280188526	3.456054993	-0.163821531
8.057264267	2.670663814	2.594498548
7.110770687	2.659925474	2.230988013
7.962027681	2.642027313	2.213319245
8.369827652	3.467120501	0.163670437
7.548411426	3.452955056	0.072004346
8.514740751	2.818176102	0.006105004
8.495110014	3.159524619	-0.081311982
8.337869463	3.450132219	-0.164752541
7.16208071	2.654100073	2.244521128
8.063796873	2.648361441	2.239340249
8.379499856	3.44104611	0.163652362
8.516693953	2.78986088	0.006100239
8.490688292	3.128261522	-0.081177424
8.401142141	3.446164309	-0.165793089
7.216123328	2.64897657	2.25890015
8.118781056	2.638852837	2.25235075
8.392795421	3.416452837	0.163706558
8.476699223	2.747991528	0.006065525
8.488973467	3.098083723	-0.081069771
8.475582699	3.446359957	-0.167052699
7.318892342	2.661250702	2.288503635
8.192192476	2.634952742	2.270463411
8.543244965	3.447180835	0.166434096
8.526034603	2.735107159	0.006094794
8.487153159	3.067946217	-0.080962118
8.546392973	3.444635912	-0.168239278
7.340562645	2.643660742	2.292732704
8.313567385	2.645875073	2.301841917
8.603911196	3.441003358	0.167409511
7.790464351	3.448710809	0.073903991
8.621120992	2.736468011	0.006156736
8.490876932	3.039871277	-0.080908295
9.342419513	3.73219806	-0.18368311
7.421836005	2.647235901	2.315569866
8.37421457	2.636910363	2.316383064
8.705517114	3.45069674	0.169179695
7.867847253	3.454137716	0.074537208
8.677178651	2.724986637	0.006190769
8.486968824	3.009128913	-0.0807827
8.511590561	3.370046974	-0.167143968
7.506818051	2.651615222	2.339534746
8.444116558	2.630474018	2.333475293
8.448071994	2.634456235	1.984056154
8.736536233	3.432015016	0.169577094
8.82110444	2.740481797	0.006287426
8.487669249	2.980095762	-0.080701966
8.499552403	3.33515285	-0.166705845
7.576500622	2.650112496	2.358706698
8.592600704	2.647836548	2.372251693
8.451452306	2.60708719	1.982962289
8.770317553	3.414263403	0.170028673
7.978863309	3.444638252	0.075387275
8.912632894	2.738962638	0.006346645
8.487327685	2.950758146	-0.080612253
8.494835008	3.303263079	-0.166413767
7.674348382	2.657940962	2.386618601
8.612707288	2.625127039	2.375568094
8.546208331	2.607629738	2.003308217
8.90388504	3.434841663	0.172413008
8.029842373	3.437458566	0.075768938
9.011887463	2.73923417	0.006411309
8.487830504	2.921776232	-0.080531519
8.494666052	3.273231332	-0.166212959
7.781390841	2.668305461	2.417350042
7.707691791	2.643033757	2.061524205
8.968548967	3.428214485	0.173460679
8.134238988	3.45265907	0.07665371
9.040359766	2.717618813	0.006425604
8.489182475	2.893141677	-0.080459755
8.49906365	3.245014937	-0.16610342
7.799534016	2.647812592	2.420451391
7.753402294	2.632151855	2.071580463
9.120212199	3.454156268	0.176188217
8.158617906	3.433505438	0.076783819
9.167513918	2.725203699	0.006510008
8.490438506	2.864526176	-0.080387983
8.501497998	3.216094759	-0.165957389
7.836722874	2.63365184	2.429473388
7.033839821	2.66372093	2.129596231
7.899283275	2.654676409	2.108371313
9.216888842	3.458475182	0.177850025
8.253093187	3.443498549	0.077573171
9.242990765	2.716805411	0.006557655
8.49539327	2.837197395	-0.080352101
8.500090357	3.185786534	-0.165738327
7.934893814	2.639578284	2.457385527
7.080715519	2.656662743	2.14131069
7.957984464	2.647259603	2.12186151
9.2415129	3.43540768	0.178120972
8.345857924	3.452179472	0.07834517
9.449099459	2.745921254	0.006697875
8.502158495	2.810492998	-0.08033416
8.492952457	3.153429353	-0.165409727
7.97576118	2.626023734	2.467535244
7.150161193	2.657722711	2.159836052
8.008427175	2.636778837	2.133143958
51.29088513	14.79383726	11.96843712
44.72898927	12.90372577	5.149375957
9.354277814	3.44469932	0.180089863
8.363811079	3.429593528	0.078414565
9.469012229	2.720232208	0.006706043
8.50218735	2.781597028	-0.080253418
8.493203993	3.123906989	-0.165227187
8.139771117	2.652371827	2.515747057
7.220581844	2.658714004	2.178633924
8.091140666	2.6365257	2.153011138
51.03293359	14.54999381	11.89777366
44.7827038	12.77052706	5.151025336
9.460610564	3.450932302	0.181932302
8.440991576	3.431028553	0.07903911
9.629304353	2.734327987	0.00681359
8.498314157	2.75149534	-0.080136802
8.493352907	3.094412762	-0.165044633
8.252879979	2.66124878	2.548170076
7.266669811	2.650396006	2.190075873
8.240359937	2.657211623	2.190537985
51.07639024	14.39309342	11.89755432
40.41949184	11.39231208	6.20342348
40.40761718	11.3889662	4.643750707
9.560486359	3.454166937	0.183648305
8.498781364	3.424174063	0.079481488
9.658830014	2.710717536	0.006828565
8.508619632	2.726020116	-0.080154743
8.487759165	3.062911059	-0.164752541
8.244553057	2.630667159	2.543095099
7.345351831	2.65358932	2.211325643
8.303888104	2.64959959	2.205254372
51.12406726	14.23737309	11.89842979
40.46726626	11.27187773	4.646609347
9.639759348	3.449410022	0.184966909
8.574252632	3.424043502	0.080088681
9.99087874	2.770868443	0.007057273
8.583667585	2.721055283	-0.0807827
8.487700922	3.033491471	-0.164570001
7.399660643	2.647572745	2.225219487
8.38408685	2.646876265	2.224385792
51.15810044	14.07787086	11.89624206
40.56586094	11.1653449	4.653975051
45.31578227	12.4514444	3.466787921
9.750192115	3.455220052	0.186881618
8.54473616	3.381898146	0.07971569
10.0253729	2.747339814	0.007075652
8.660673823	2.716253958	-0.081428606
8.487542918	3.004101209	-0.164387447
7.516579453	2.663421522	2.25791144
8.435660457	2.634725808	2.235913571
44.37578171	12.06515779	8.534756702
40.58745731	11.03744728	4.65254597
9.789993275	3.435553865	0.187441574
8.522488954	3.342887322	0.079412093
10.04533729	2.719705512	0.00708382
8.791212102	2.727599235	-0.082576875
8.480678104	2.972425688	-0.164077101
7.561031738	2.653091439	2.268808602
8.4955743	2.624859332	2.249648866
51.22372556	13.75838971	11.89164821
9.817486696	3.411409685	0.187766703
8.510336747	3.308030034	0.079203917
10.05363389	2.688874147	0.00708382
8.913297405	2.735528157	-0.083644409
8.484090459	2.944426344	-0.163967577
7.641845571	2.655145026	2.290603157
8.584246548	2.623433511	2.270987802
51.25154859	13.59741991	11.88836662
9.877069727	3.398188405	0.188705997
8.500849472	3.274357237	0.079021757
10.41279625	2.750729803	0.007330906
8.933130145	2.711655076	-0.083752062
8.483628416	2.915134516	-0.163785023
7.70636573	2.651093636	2.307493921
51.14010979	13.40005062	11.85292522
44.36320551	11.62432392	8.511400263
44.86408528	11.73715975	3.420954571
9.914896014	3.377218981	0.189229818
8.48002528	3.236495218	0.078735513
10.53633281	2.748811232	0.007411907
9.054419924	2.718162652	-0.084810626
8.489691795	2.88812743	-0.163730261
7.77821902	2.649152695	2.326564072
50.71203302	15.14598727	11.31243782
44.37431545	13.24637488	8.127239106
45.3981266	11.72818067	3.458916054
9.934684888	3.349979363	0.18941045
8.482432005	3.207634006	0.078666119
10.63864957	2.740671725	0.007477932
9.122149846	2.70801495	-0.085366819
8.491879824	2.859834059	-0.163602469
7.860161088	2.650177162	2.348630904
51.06821047	13.04687993	11.81748382
44.31080902	11.32050201	8.487860721
45.37977824	11.57504263	3.454796181
10.01983898	3.344492793	0.190837445
8.486614838	3.17949022	0.078614069
10.80788512	2.748938624	0.007590925
9.209092888	2.703109527	-0.08610243
8.491129012	2.830606059	-0.16341993
50.56545735	14.7773339	15.48073934
7.973213299	2.661080224	2.379960535
44.33656797	12.93935724	8.105632657
45.46052944	11.44720974	3.458253965
10.23986209	3.383053785	0.194829406
8.498204274	3.154134518	0.078631421
10.75128529	2.699451361	0.007545319
9.197175591	2.668991308	-0.085914042
8.496924607	2.803602473	-0.163365153
8.03889827	2.6556201	2.397123812
8.015049705	2.641072134	2.048308011
51.14635617	12.73305062	11.81726448
51.1236361	14.75780111	11.37347203
44.30508102	12.78279583	8.092668409
45.00442957	11.2064999	6.851092795
44.70392559	11.13167117	5.095834296
44.66213738	12.85457501	4.677350974
45.38123257	11.27929998	3.449572907
10.10764501	3.305011612	0.192119928
8.507840956	3.128047598	0.078631421
11.2574529	2.789854392	0.007894508
9.46003611	2.713833422	-0.088291321
8.494080299	2.773796482	-0.163146091
8.073529084	2.639615856	2.405024288
7.188284837	2.652040928	2.090598571
8.128439601	2.650817832	2.075197338
51.18518115	12.57607591	11.81726448
51.16867034	14.60088599	11.37347203
44.30809108	10.88639103	8.467788734
44.71373396	10.98853952	5.09308533
44.69466522	12.71558708	4.676650023
45.41174694	11.13906904	3.449278698
44.86758012	10.99064707	1.717273247
10.07492994	3.260134375	0.191307085
8.51082041	3.099535972	0.078570699
11.2251621	2.745326201	0.007865919
9.588571051	2.718896264	-0.089412678
8.484473875	2.741882355	-0.162799252
8.121869301	2.627866856	2.41701126
7.249848361	2.649512739	2.106129395
8.222541787	2.653624542	2.097133514
51.1931771	12.41162568	11.81026451
51.24710739	14.4533907	11.38099652
40.46162544	11.39094466	5.794633413
44.72308974	10.84545208	5.090336841
40.47878895	11.38205283	4.231845832
45.44183162	10.99875643	3.448984251
44.92731255	10.85928277	1.718276274
10.02775183	3.210915494	0.190223294
8.503358455	3.067303118	0.078414565
44.8155314	10.8148802	0.031380632
9.66041618	2.707275434	-0.090004761
8.500464459	2.718275643	-0.162945283
8.270094847	2.647825318	2.458693263
7.330513355	2.65352746	2.127188191
8.268599166	2.640506263	2.106804249
51.20349371	12.24792536	11.80391971
51.14048718	14.25408933	11.34755402
44.75035308	10.70680432	5.089677375
44.74308524	12.43311485	4.673645949
45.43655924	10.85002606	3.446041451
44.86126815	10.69775312	1.714486969
10.05185268	3.184665336	0.190494241
8.499545631	3.036490766	0.078293128
44.86503808	10.68127449	0.031392207
9.799737988	2.713920948	-0.091224801
8.593603871	2.719027157	-0.164570001
8.335048751	2.640456183	2.475584026
7.397648421	2.652188003	2.144298301
8.369323419	2.644404333	2.130391237
51.25887469	12.09503525	11.80807678
51.2264037	14.10881017	11.35695916
44.79653105	10.57265823	5.091216604
44.77046348	12.29288923	4.672544455
45.46380852	10.7092058	3.445600138
44.88512228	10.55801145	1.714152705
10.05203482	3.150821255	0.190313609
8.490909502	3.004063356	0.078128321
10.00284766	2.737155531	-0.093036916
8.698277412	2.722816788	-0.166413767
8.546019116	2.678467099	2.535791395
7.49848142	2.662404914	2.171148049
8.415426327	2.630602628	2.140061974
51.16268764	11.90675366	11.77744762
51.25246514	13.94696128	11.35319691
44.22412816	12.02775876	8.043230888
45.03036288	10.48210457	6.829757194
44.7919711	10.42661156	5.087038558
45.54404913	10.58073308	3.449205026
44.90367535	10.41709422	1.713632595
10.04350935	3.11434069	0.189970421
8.494423559	2.976015695	0.078076271
38.75419382	8.975523584	0.027077385
10.0150598	2.707498276	-0.093072798
8.776311409	2.717708342	-0.167746392
8.56522404	2.655654976	2.539060588
7.536647858	2.649947482	2.179834828
8.491230827	2.625729628	2.157280798
51.24082216	11.75933637	11.78707401
51.12407844	13.74370326	11.31536465
44.73850047	10.26957411	5.077363533
45.52380436	10.42892999	3.445232258
44.93152621	10.27839078	1.713483942
10.04058998	3.079701607	0.189735593
8.500679808	2.948957938	0.078050246
38.7318281	8.845230949	0.027042671
10.03008188	2.678565705	-0.093135592
8.850571159	2.710975251	-0.169005988
7.616718597	2.651872389	2.200630175
8.532700547	2.609899313	2.165772077
51.16816303	11.57752703	11.76213352
51.30493914	13.62368611	11.34609013
44.54579181	10.08157332	6.74675272
44.3684571	10.04143865	5.031847518
44.32890123	10.01215643	3.35246192
44.54464838	10.04617799	1.697546852
10.0365962	3.044819278	0.189482706
8.493609792	2.917342082	0.077902792
38.83585612	8.743713848	0.027096444
10.44627986	2.755406468	-0.096921299
8.937311085	2.707580199	-0.170502914
7.700519491	2.65458834	2.222478614
51.11486865	11.40073623	11.74178783
51.18379922	13.42355114	11.31013852
50.43276773	15.23666574	10.7263733
44.32533221	11.6182239	8.04184806
44.23522531	13.35163787	7.654373453
44.31098893	9.885624481	6.70656536
44.27197087	9.876919294	5.017445128
44.17250503	9.834497951	3.338336573
44.91574707	11.7352863	2.97929206
44.18993745	9.82380933	1.682872784
10.03344111	3.010278058	0.189247893
8.482638677	2.884509792	0.077720633
38.86737957	8.625608844	0.027099847
10.49822903	2.734687666	-0.097324993
9.062424402	2.715156626	-0.172730041
7.75245226	2.645908561	2.23511361
51.16485473	11.24721633	11.74528877
44.30263577	9.738742879	8.418520013
44.31976675	11.47156781	8.034415122
44.28070712	13.21727371	7.655190752
44.1903842	9.716493269	6.683768728
44.19431153	9.71735649	5.005241435
44.18785932	9.695725847	3.337233172
44.12518303	9.667445731	1.679269325
9.944858178	2.95047465	0.187405439
8.461122214	2.848263091	0.077443061
38.8799835	8.503333727	0.027090318
10.48235901	2.696239222	-0.097100716
9.078380556	2.689612823	-0.172876087
7.835478963	2.647434258	2.256698834
51.1704242	15.13791364	12.95217573
51.15525277	11.08068957	11.73522465
44.38323542	9.61381015	8.428191225
44.32861642	13.08359468	7.656498238
44.29249811	9.596583401	6.69472883
44.22100079	9.581093205	5.004911463
44.20862422	9.558217658	3.336571083
45.45786838	11.57943454	3.01048174
44.26598878	9.556065344	1.683504355
10.04500684	2.946687135	0.189121442
8.512510722	2.836516492	0.077833397
38.92055054	8.387171961	0.027100529
10.60107002	2.692125548	-0.098123398
9.246828679	2.708687077	-0.175924686
7.94694934	2.657961639	2.286444173
51.16037688	10.91758584	11.72866146
44.29040502	9.451538507	8.405016939
44.3578037	11.19146028	8.028711194
44.28520701	12.92321412	7.642116353
44.24723638	9.444749578	6.683476427
45.06573567	13.12538483	6.014589805
44.22977761	9.441022201	5.002603095
44.70859766	11.24926075	4.639800047
44.21627939	9.417971769	3.334952459
45.35284389	11.40462874	3.001195336
44.16510049	9.392566957	1.678563487
10.04823874	2.914184647	0.189013066
8.547763447	2.819157013	0.078076271
44.19121387	9.381192304	0.030750326
10.61897807	2.66202078	-0.09821311
9.436605176	2.732871275	-0.179374901
8.011849751	2.652366404	2.302764643
51.18694476	10.75917161	11.72712986
44.20651322	11.00914352	7.995176193
44.42796762	12.81709611	7.659930036
44.28568573	9.31099199	6.684937457
45.04309151	11.20162177	6.398514296
45.30405017	13.0441468	6.04102661
44.27312077	9.308350089	5.004251997
44.71875579	11.10604823	4.637296651
44.20397362	9.273673062	3.331862555
45.44961063	11.28082007	3.005294229
44.12132724	9.241865261	1.675814402
10.04079276	2.878659161	0.188705997
8.581088228	2.800987117	0.0783018
44.26676826	9.255394253	0.030782999
10.58632653	2.619342401	-0.097836327
9.533376895	2.729223831	-0.181054381
50.43786839	14.45865818	14.85622811
8.092374548	2.651504204	2.323559989
51.20442738	10.59891707	11.72362987
44.23876623	9.157079736	8.384396594
44.25155893	10.87628941	7.997250435
44.22420627	12.61147116	7.618092343
44.28982706	9.170067827	6.681284408
44.91753967	11.02418215	6.37584498
44.29271118	9.170664802	5.00326256
44.73908907	10.9654844	4.63589475
44.24784065	9.141242161	3.333039627
45.39192164	11.11877416	2.999209787
44.10934705	9.098182899	1.674291265
10.04957682	2.847840925	0.188705997
8.754259246	2.827822743	0.079802437
44.20092846	9.10018422	0.030717653
9.610973487	2.719563386	-0.182368753
8.172968354	2.650172975	2.344355568
8.186010199	2.644300185	2.000283066
51.15830126	10.42579679	11.70569031
44.35304106	12.51373412	9.382709136
44.38900479	9.046249185	8.407570881
44.2607898	10.73467233	7.992929336
44.33326114	9.037306447	6.683622341
44.99929127	10.89798379	6.382673288
40.35794609	11.35234926	5.372103232
44.29142132	9.028777909	4.999964278
44.76091526	10.82536819	4.634693121
44.22388374	8.994913653	3.32914053
45.40253999	10.9738337	2.997672703
44.22323418	8.980314879	1.67756046
10.05056499	2.814838687	0.188561486
8.773370292	2.804300739	0.079897849
44.25412004	8.969699433	0.03073535
9.648158535	2.698142851	-0.1829164
8.240769911	2.644245224	2.36146568
8.272017519	2.644084154	2.019307441
44.48844403	12.40471033	9.403257956
44.21047117	12.31473007	7.602566526
45.09032158	10.77368928	6.39086678
45.47857358	12.64230054	6.048525353
44.46898873	8.922964982	5.016895335
44.77843221	10.68429862	4.633090948
44.31972496	8.8728984	3.334290372
45.48064552	10.84513749	3.00061884
44.39658619	8.873780607	1.683095705
10.05144389	2.781857092	0.188416975
8.964989013	2.835264492	0.081563292
44.33242516	8.844060546	0.030770746
9.980198153	2.758013657	-0.189050121
8.322403904	2.642305202	2.382524242
50.40042936	9.934111484	13.5533914
8.335811258	2.636315919	2.032896346
44.53384818	12.27024575	9.404853454
44.27789375	10.45157742	7.984286187
44.24804304	12.17903633	7.602566525
45.31341676	12.44675472	6.021453398
44.79647314	10.54345064	4.631588911
45.4690193	10.69504308	2.997672703
57.53320024	11.31601656	2.179784667
10.05703816	2.750215547	0.188362794
8.985097431	2.811330169	0.081667384
9.991506061	2.72817198	-0.189104897
8.447360807	2.653477418	2.415955053
8.404282175	2.629635285	2.047617502
50.41873856	9.792648031	11.51535789
44.33869503	12.07024218	9.355775467
44.31566462	12.05151213	7.607796
44.76851781	10.39201814	4.625380491
45.47925647	10.55030863	2.996199752
10.06253271	2.718565557	0.188308598
9.089204923	2.813318325	0.082534803
10.00658616	2.699328456	-0.189232675
8.539298034	2.653601011	2.439909208
8.418823169	2.605854966	2.049202983
44.53543471	11.97716493	9.389491668
44.32289326	11.90756221	7.602730081
50.21160673	9.595377889	5.654562037
44.68477391	10.22820346	4.613464331
45.5444877	10.41829652	2.998377229
10.06406324	2.685876664	0.188182162
9.100662395	2.786298038	0.08256082
10.15007796	2.704657598	-0.191788388
8.599960815	2.643547397	2.4549136
8.554372439	2.619079289	2.08023078
44.52745998	11.82865096	9.380115142
44.32870418	11.76342859	7.597500132
44.32727823	10.0179896	6.264819646
50.33556026	9.45909233	5.665226024
44.32674702	10.00323377	4.573309874
44.1899739	9.96588448	2.90717783
50.217892	9.397966475	1.899268639
10.39903878	2.741125968	0.194287511
9.198173159	2.785316332	0.083367525
50.26190858	9.387138172	0.034803764
10.42616142	2.743994175	-0.196845067
50.62879972	13.34377248	14.82462621
50.51152826	9.329077326	11.51645176
44.50761908	11.67731541	9.368343941
44.26812644	13.37221188	8.96123435
44.26727231	9.877188841	7.959913608
44.27464622	9.863423237	6.253075146
50.34968241	9.301912027	5.66357712
44.20960055	9.834354745	4.558088756
50.30975121	9.271835543	3.773791179
44.16968617	9.819003305	2.903847362
50.26319537	9.246929376	1.89990021
10.43062231	2.715254428	0.19472103
9.46723221	2.835111517	0.0857269
50.30817717	9.236143376	0.034816017
10.44517475	2.714760735	-0.197045875
50.42567052	11.10837183	15.17342542
44.58402432	11.5512812	9.376923194
44.31740824	13.23886504	8.962946195
44.20982793	9.72208233	7.944183703
44.22826024	9.710760722	6.242286706
50.3613569	9.14437912	5.661707919
44.22012574	9.694413366	4.55608604
50.33599776	9.117087966	3.773643837
44.13818843	9.669991922	2.899812604
50.27461035	9.089658361	1.899268639
10.61708107	2.72904012	0.198044659
9.534373058	2.823372702	0.086256025
50.33824613	9.082111385	0.03481738
10.4553918	2.683199734	-0.197082383
44.52716827	11.39088741	9.357571234
44.33427788	13.09588649	8.958190221
44.30586545	9.600795316	7.956110831
44.23818908	11.30462262	7.563833521
44.27817765	9.579423616	6.245154405
50.37254067	8.986861723	5.659839193
44.24382446	9.557442027	4.555485225
50.38533225	8.966460512	3.775262461
44.14618562	9.529899604	2.89840355
50.3632629	8.946211109	1.901572001
11.35418034	2.881399332	0.211628156
9.581376519	2.805347665	0.086602991
50.34125502	8.92326931	0.034800363
10.44806737	2.64718137	-0.196790305
44.31203795	11.19112246	9.305101028
44.32618928	12.94577199	8.948487541
44.22530291	9.441378793	7.936405059
44.24109478	11.16088522	7.558440492
44.86213667	13.06576749	7.287866677
44.19884686	9.420407362	6.229859377
44.25833875	9.418552193	4.553983188
44.77954935	11.25433589	4.213371233
50.41456848	8.812181686	3.775409565
44.23768792	9.407701377	2.902502443
50.43083682	8.79869859	1.903095019
11.36102681	2.846065771	0.211592035
9.683109844	2.802909163	0.087444385
50.38612779	8.771869955	0.034812615
51.1112155	14.79505487	12.37244756
44.30718272	11.04540354	9.296921365
44.24924155	9.304639979	7.935540554
44.23779531	11.01580635	7.552066611
44.88777084	12.9239704	7.285555448
44.23432457	9.286186933	6.230815434
45.09311341	11.20372074	5.95383646
39.99981921	11.49396767	4.934708837
44.25684032	9.276398224	4.550878979
44.78003341	11.10850977	4.210190252
44.21359863	9.260890062	2.899044181
11.31146862	2.796797944	0.210508244
9.984884387	2.857091177	0.090090012
50.95691137	8.710252604	0.035188348
44.3066051	10.90099148	9.289739243
40.3435282	11.51442632	8.130059501
44.29011881	9.171437677	7.937787887
44.31832517	10.89157132	7.560074614
44.36641085	9.171893816	6.245427633
40.17722587	11.41162338	4.952253105
56.37362195	9.522993246	6.324001354
44.22370036	9.127905469	4.544570422
44.72297795	10.94881376	4.201648191
44.22714271	9.122177636	2.898083355
11.14515441	2.719420426	0.20725687
10.03401575	2.837874509	0.090454323
44.22081231	10.73611104	9.264801612
44.20818911	12.47088798	8.90111663
56.50044548	9.363182202	10.62903122
44.3634071	9.044762602	7.945912238
44.28921435	10.74044015	7.549452112
44.26426083	9.009261136	6.227128053
44.96530201	10.87947121	5.928035278
40.44246347	11.35298973	4.980629685
56.41335664	9.351783955	6.325211088
44.36265039	9.014773335	4.555985904
44.74280527	10.80828026	4.200375989
40.30023795	11.29182152	3.422500692
44.28132614	8.991809193	2.899812604
56.39103992	9.30460588	2.124691856
10.03882264	2.806000347	0.090419626
56.32484685	9.272479653	0.038855163
50.53374762	10.14872506	11.01688176
44.34216274	10.62162117	9.283355345
44.41646403	12.38265607	8.935361167
56.48135211	9.182066272	10.62009052
44.32195639	10.60451278	7.549452112
44.99149111	12.50658274	7.28339776
44.88559024	10.71452311	5.913164635
40.55939843	11.25169002	4.990755799
56.48004354	9.184888361	6.329498808
44.43400536	8.887409801	4.560492491
44.77963224	10.67188412	4.20073934
40.94559217	11.3372787	3.474336945
56.40973544	9.148191858	4.215645896
44.34393381	8.862955463	2.902118112
56.39268617	9.127246205	2.123688829
10.04545623	2.774656091	0.090402281
56.30268188	9.091503986	0.038820447
51.14621949	14.1273103	12.33802277
44.28013057	10.4632235	9.263604749
44.28293196	12.19913626	8.900926849
56.51702772	9.009979	10.62154965
44.26786583	10.44808936	7.534743117
44.95914344	12.34912592	7.271993723
44.95010973	10.5842681	5.917358894
40.61288107	11.13245302	4.993110897
56.46967495	9.005462663	6.325211088
44.66965195	10.50095195	4.187380746
41.29165805	11.29682069	3.500744187
56.39870928	8.95074697	2.12287153
10.04813342	2.742244335	0.090350231
56.35500409	8.922636395	0.038837464
51.03138503	11.9130549	12.71937048
